ply
format ascii 1.0
element vertex 1281
property float x
property float y
property float z
property uchar red
property uchar green
property uchar blue
end_header
0.015137 0.937338 -0.128641 76 0 153
0.320257 0.106084 0.039547 76 0 153
-0.328309 -0.101975 -0.249830 76 0 153
-0.016892 0.402147 0.303664 0 0 255
0.318949 0.115489 0.248644 0 0 255
0.319392 0.400976 0.278146 0 0 255
0.319807 0.843958 0.214866 76 0 153
-0.325718 -0.217825 0.287002 76 0 153
-0.328816 -0.645660 0.132696 76 0 153
-0.328817 0.192889 0.059744 76 0 153
-0.328817 -0.531630 0.084941 76 0 153
0.049587 -0.880388 0.213392 76 0 153
0.187550 0.414869 0.299193 0 0 255
0.320092 -0.015482 0.142666 76 0 153
-0.301259 -0.887444 -0.203392 76 0 153
-0.275307 -0.883160 0.100217 76 0 153
0.310215 -0.389612 0.295043 76 0 153
-0.328822 0.603449 -0.155071 76 0 153
0.222532 0.937338 0.082820 76 0 153
0.068404 -0.641788 0.301070 76 0 153
0.310630 0.095881 0.297214 0 0 255
0.175918 -0.010060 0.300347 0 0 255
-0.328821 -0.689615 -0.115318 76 0 153
0.224100 -0.353400 0.301635 76 0 153
0.320075 0.135307 0.040237 76 0 153
-0.291976 0.935974 0.069306 76 0 153
0.097117 0.143924 -0.287717 76 0 153
-0.328812 -0.659520 0.244093 76 0 153
0.023861 -0.880434 0.063159 76 0 153
0.319700 -0.597857 0.173234 76 0 153
0.302947 -0.351822 0.299198 76 0 153
-0.156257 0.506881 0.298332 0 0 255
-0.328820 -0.769908 -0.036441 76 0 153
-0.234139 0.936340 0.054958 76 0 153
-0.202993 0.790770 0.298735 0 0 255
0.095695 -0.212605 0.301891 0 0 255
-0.341417 0.062125 0.298865 0 0 255
-0.328819 0.864075 -0.011709 76 0 153
-0.328283 -0.606169 -0.250552 76 0 153
-0.129030 -0.432475 -0.287714 76 0 153
0.182042 -0.880513 0.310215 76 0 153
0.095792 -0.880434 -0.223861 76 0 153
-0.328816 0.237022 0.106627 76 0 153
-0.102643 -0.170280 -0.287714 76 0 153
-0.328822 0.722576 -0.174669 76 0 153
-0.174480 -0.420331 0.302070 76 0 153
0.156505 -0.592818 0.301097 76 0 153
-0.328821 -0.764978 -0.102435 76 0 153
-0.328668 0.074948 0.219414 76 0 153
0.212675 0.442292 -0.287719 76 0 153
0.271065 -0.883564 0.220128 76 0 153
-0.328822 -0.301052 -0.234652 76 0 153
0.319683 -0.244359 0.204249 76 0 153
-0.328819 0.451559 -0.017010 76 0 153
-0.328368 0.582212 -0.248215 76 0 153
-0.263391 -0.895223 -0.253842 0 127 127
0.030082 0.755121 0.297371 0 0 255
-0.328135 0.774702 -0.254624 76 0 153
0.131488 -0.731619 0.302000 76 0 153
0.207271 0.937338 0.161912 76 0 153
-0.326328 0.614759 -0.265827 76 0 153
0.200620 0.937338 0.003362 76 0 153
-0.235406 0.137375 -0.287712 76 0 153
0.107484 0.658283 -0.287718 76 0 153
0.218236 -0.580691 0.301296 76 0 153
0.320263 0.344415 0.084258 76 0 153
-0.165687 0.888371 0.298461 0 0 255
0.319518 0.641456 0.039972 76 0 153
-0.328815 -0.480475 0.202648 76 0 153
-0.327992 0.468233 0.236586 76 0 153
0.320342 0.589797 -0.231665 76 0 153
0.320320 0.485304 -0.140224 76 0 153
0.171925 0.734201 -0.287719 76 0 153
-0.328819 -0.730626 0.000438 76 0 153
-0.328823 0.671558 -0.197082 76 0 153
0.319616 -0.261306 0.135931 76 0 153
0.027878 0.491239 -0.287716 76 0 153
0.319623 0.708243 -0.232574 76 0 153
-0.328816 0.791054 0.101711 76 0 153
-0.016902 -0.506977 0.302070 76 0 153
0.320334 -0.478289 -0.234256 76 0 153
0.013717 0.936340 0.136641 76 0 153
-0.116048 -0.432001 0.302071 76 0 153
-0.092482 -0.096751 0.301723 0 0 255
0.320140 0.588862 0.014974 76 0 153
0.320280 -0.097289 -0.040122 76 0 153
0.137362 0.532912 -0.287718 76 0 153
-0.328820 -0.163069 -0.074069 76 0 153
0.317879 0.699253 0.285788 0 0 255
-0.328814 0.482715 0.187010 76 0 153
-0.197204 0.642693 -0.287713 76 0 153
-0.328537 -0.841373 -0.210410 76 0 153
-0.328815 -0.798428 0.204354 76 0 153
0.197301 0.937338 -0.207209 76 0 153
0.290453 0.936043 0.017476 76 0 153
-0.226383 0.179788 0.326564 255 0 0
0.301245 0.448440 -0.284495 76 0 153
0.319666 0.275901 0.026315 76 0 153
0.117874 0.937338 0.086074 76 0 153
-0.211911 -0.880434 -0.059021 76 0 153
-0.039626 0.936882 0.013604 76 0 153
0.022305 -0.052405 0.301430 0 0 255
0.320273 -0.634095 -0.237653 76 0 153
0.087373 -0.347393 0.301489 76 0 153
-0.071631 -0.880434 -0.022101 76 0 153
0.258873 -0.881850 0.171669 76 0 153
0.250317 -0.880608 -0.041648 76 0 153
-0.215044 0.405686 0.301086 0 0 255
-0.217138 -0.880434 -0.024674 76 0 153
-0.223115 -0.835257 0.301928 76 0 153
-0.328821 0.430542 -0.132356 76 0 153
0.182428 -0.880434 -0.174525 76 0 153
0.319280 0.571047 0.196240 76 0 153
0.102381 0.858704 -0.287718 76 0 153
0.320331 0.814246 -0.104615 76 0 153
0.281548 -0.265588 -0.287200 76 0 153
0.077076 0.177168 -0.287717 76 0 153
0.319946 -0.676021 -0.027390 76 0 153
-0.221024 -0.372610 0.319031 153 0 76
0.294529 0.938363 0.296399 0 0 255
-0.328822 -0.468053 -0.134439 76 0 153
-0.135029 -0.880434 0.033548 76 0 153
-0.162088 -0.804220 0.302072 76 0 153
-0.248808 -0.912053 -0.217024 0 127 127
0.289733 -0.747736 -0.286661 76 0 153
0.320027 -0.001392 0.186781 76 0 153
0.319915 -0.055444 0.117997 76 0 153
-0.070184 -0.880434 -0.147870 76 0 153
-0.252216 -0.775083 -0.287712 76 0 153
-0.188977 0.765962 -0.287713 76 0 153
-0.033588 -0.725729 0.301988 76 0 153
-0.204026 -0.880434 -0.170888 76 0 153
-0.218166 -0.213099 -0.287712 76 0 153
0.303821 -0.886092 -0.145084 76 0 153
-0.328820 0.718838 -0.085619 76 0 153
0.319817 0.652786 -0.005283 76 0 153
-0.155200 -0.049619 -0.287713 76 0 153
-0.005638 0.524861 0.298967 0 0 255
0.291972 0.601160 0.302189 0 0 255
0.320154 -0.305257 -0.023383 76 0 153
-0.202027 -0.335469 -0.287713 76 0 153
0.222256 -0.313553 0.302066 76 0 153
-0.328819 -0.411845 0.006044 76 0 153
-0.175974 0.659477 0.298474 0 0 255
-0.163886 0.600590 0.298312 0 0 255
-0.258848 0.505142 0.300277 0 0 255
0.026257 0.937169 0.261907 0 0 255
0.118436 0.578551 0.297977 0 0 255
-0.328822 -0.160213 -0.162566 76 0 153
0.319144 -0.398953 0.172056 76 0 153
-0.148390 0.135940 -0.287713 76 0 153
0.147149 -0.131130 0.301326 0 0 255
-0.102267 0.937134 -0.240707 76 0 153
-0.328238 -0.790195 0.277344 76 0 153
-0.032786 0.175622 -0.287715 76 0 153
0.081832 0.649753 -0.287717 76 0 153
-0.006631 0.733858 -0.287716 76 0 153
-0.329414 0.350184 0.268546 255 0 0
0.081764 0.344180 0.299451 0 0 255
0.015486 -0.783877 -0.287716 76 0 153
-0.328816 0.392307 0.135334 76 0 153
0.320308 0.305028 -0.096950 76 0 153
-0.328706 0.135864 0.275220 0 0 255
-0.151292 0.534533 0.298227 0 0 255
0.306744 -0.370341 -0.282317 76 0 153
-0.149987 0.937338 -0.079315 76 0 153
-0.328819 -0.764524 0.004437 76 0 153
0.319782 0.816439 -0.198551 76 0 153
0.257653 0.937338 -0.117585 76 0 153
-0.328822 -0.091054 -0.150621 76 0 153
0.320335 0.477230 -0.198616 76 0 153
-0.328148 0.440793 0.278188 0 0 255
-0.328816 -0.166702 0.147582 76 0 153
-0.328818 0.200037 0.014922 76 0 153
0.138793 -0.161325 -0.287718 76 0 153
-0.271541 0.780175 0.300186 0 0 255
-0.328819 0.759259 -0.059704 76 0 153
0.079788 0.936487 -0.255749 76 0 153
0.212682 0.824112 0.296949 0 0 255
-0.328811 -0.347146 0.237147 76 0 153
0.319819 -0.421155 -0.226345 76 0 153
-0.328821 -0.409368 -0.089813 76 0 153
-0.047782 -0.678002 0.301618 76 0 153
0.148867 -0.005907 0.300404 0 0 255
0.319211 0.193959 0.214932 76 0 153
0.080065 -0.889366 0.294311 76 0 153
-0.286812 -0.496107 0.302979 76 0 153
0.319733 0.692870 -0.097832 76 0 153
0.320340 0.301643 -0.221436 76 0 153
-0.328818 0.419030 -0.000872 76 0 153
-0.244792 -0.880353 0.216892 76 0 153
0.079221 -0.094873 0.301077 0 0 255
-0.110636 0.419154 -0.287714 76 0 153
-0.212272 -0.328081 0.310444 153 0 76
0.285520 0.647616 -0.287031 76 0 153
0.319209 -0.176066 0.165999 76 0 153
-0.328814 0.716802 0.204791 76 0 153
-0.273742 -0.882952 0.188997 76 0 153
-0.024314 -0.372432 0.301597 76 0 153
-0.327874 0.910858 0.093639 76 0 153
0.126644 0.065691 -0.287718 76 0 153
-0.223458 0.863525 -0.287712 76 0 153
-0.328820 -0.130267 -0.050819 76 0 153
-0.215237 -0.083598 -0.287712 76 0 153
0.056585 -0.880364 -0.238607 76 0 153
-0.328821 -0.197068 -0.086817 76 0 153
0.213373 0.840438 -0.287719 76 0 153
0.072527 0.937162 0.248428 76 0 153
0.318840 -0.670200 -0.261211 76 0 153
-0.328819 0.677733 -0.046494 76 0 153
0.320185 -0.591869 -0.029866 76 0 153
0.125788 0.674599 -0.287718 76 0 153
0.320028 0.036758 0.033521 76 0 153
-0.301083 -0.887404 0.211501 76 0 153
0.043827 -0.375073 0.301088 76 0 153
-0.266254 -0.881956 -0.022469 76 0 153
-0.288461 0.076004 -0.287286 76 0 153
-0.328817 0.687370 0.064672 76 0 153
-0.160746 0.066330 0.301147 0 0 255
0.071046 -0.529021 -0.287717 76 0 153
-0.242081 -0.712365 -0.287712 76 0 153
-0.085543 0.414499 0.299871 0 0 255
-0.122927 0.936652 0.148114 76 0 153
-0.153937 -0.292289 0.302072 76 0 153
-0.328818 -0.179066 0.020381 76 0 153
0.251614 -0.509838 0.302133 76 0 153
0.120517 0.019137 -0.287718 76 0 153
0.320304 0.336930 -0.078210 76 0 153
0.129151 0.782459 0.296380 0 0 255
-0.328815 -0.701692 0.211678 76 0 153
0.037188 -0.884518 0.259791 76 0 153
0.319706 -0.035892 0.246687 0 0 255
-0.159992 0.238624 0.300687 0 0 255
-0.067305 -0.130783 -0.287715 76 0 153
-0.217056 0.798819 -0.287712 76 0 153
-0.328823 -0.064981 -0.200053 76 0 153
0.230375 0.937337 -0.232311 76 0 153
-0.328819 0.069551 -0.022284 76 0 153
-0.328819 0.773073 -0.021695 76 0 153
-0.031149 -0.024054 -0.287715 76 0 153
0.318119 -0.858047 0.010458 76 0 153
-0.328818 -0.830645 0.053438 76 0 153
-0.328818 -0.403066 0.050493 76 0 153
-0.101599 -0.880434 -0.147000 76 0 153
-0.284693 -0.868178 -0.250455 0 127 127
0.132683 0.169505 0.299886 0 0 255
0.096767 0.538672 -0.287717 76 0 153
-0.296611 -0.366000 0.301486 76 0 153
0.319331 0.797319 0.133251 76 0 153
-0.328814 0.858810 0.192826 76 0 153
-0.158367 -0.529942 -0.287713 76 0 153
-0.087407 -0.365549 -0.287714 76 0 153
0.061058 0.032533 -0.287717 76 0 153
0.319352 -0.093435 0.108416 76 0 153
0.315310 0.924517 0.112484 76 0 153
-0.058587 0.327421 -0.287715 76 0 153
-0.026481 -0.880434 0.147354 76 0 153
0.199575 -0.491294 0.302066 76 0 153
-0.328817 -0.721074 0.109360 76 0 153
0.116780 0.619377 -0.287718 76 0 153
0.297709 0.216394 -0.285160 76 0 153
-0.328815 0.123202 0.182865 76 0 153
-0.131471 -0.450514 0.302071 76 0 153
-0.063619 -0.614451 -0.287715 76 0 153
-0.316151 -0.477928 -0.281745 76 0 153
0.305432 -0.659846 -0.283026 76 0 153
0.237867 0.734936 0.297331 0 0 255
0.319321 0.674536 -0.147781 76 0 153
-0.328923 0.711751 0.264285 0 0 255
-0.303072 -0.887831 0.087472 76 0 153
0.134815 -0.389434 -0.287718 76 0 153
-0.300325 -0.071330 -0.286184 76 0 153
0.174658 0.937338 -0.047919 76 0 153
0.320278 -0.002590 -0.035290 76 0 153
-0.033585 -0.327415 0.302070 76 0 153
0.319321 -0.835424 0.094893 76 0 153
0.320129 0.069974 0.177682 76 0 153
0.320245 0.226214 -0.068793 76 0 153
0.107029 -0.380547 -0.287718 76 0 153
0.226104 -0.233560 0.301571 76 0 153
-0.118169 0.876088 0.297858 0 0 255
-0.183436 0.288276 0.300390 0 0 255
0.305291 0.266040 -0.283102 76 0 153
-0.186341 0.896146 -0.287712 76 0 153
-0.328822 -0.824729 -0.173679 76 0 153
-0.328819 0.123037 -0.040168 76 0 153
-0.049624 -0.881458 0.237924 76 0 153
0.034446 0.920162 -0.284297 76 0 153
0.320324 0.399267 -0.154309 76 0 153
0.320311 -0.013260 -0.136841 76 0 153
-0.123204 0.379476 -0.287714 76 0 153
0.315715 -0.773945 0.289676 76 0 153
-0.027052 -0.522645 -0.287715 76 0 153
-0.328819 -0.228370 -0.012817 76 0 153
0.151019 0.827962 -0.287718 76 0 153
-0.328720 -0.488300 -0.238549 76 0 153
0.199200 -0.283593 0.301925 76 0 153
-0.328823 0.629388 -0.186815 76 0 153
0.224554 -0.070798 0.300832 0 0 255
-0.233440 -0.880434 0.058378 76 0 153
0.140212 0.186679 -0.287718 76 0 153
0.099987 0.937338 -0.116196 76 0 153
0.268080 0.098870 0.302430 0 0 255
-0.328776 0.852626 0.264649 0 0 255
-0.141456 -0.708205 0.302072 76 0 153
0.318885 0.552432 0.280505 0 0 255
0.222406 -0.177901 -0.287720 76 0 153
-0.328818 -0.266519 0.063439 76 0 153
-0.294726 0.726902 -0.287035 76 0 153
-0.214205 0.745671 -0.287712 76 0 153
0.072272 -0.841782 -0.287431 76 0 153
-0.328465 -0.457712 0.275602 76 0 153
-0.323687 -0.872245 -0.189985 76 0 153
-0.202252 0.590795 0.298436 0 0 255
0.319660 0.773755 -0.236674 76 0 153
0.252654 -0.889488 0.288071 76 0 153
-0.328821 -0.809874 -0.123135 76 0 153
0.278341 0.144360 0.302480 0 0 255
0.320053 0.048802 0.215848 76 0 153
-0.118082 0.261362 -0.287714 76 0 153
-0.007680 -0.069616 -0.287716 76 0 153
0.319244 -0.369539 0.077508 76 0 153
0.220914 -0.296740 -0.287720 76 0 153
-0.168508 -0.752083 -0.287713 76 0 153
-0.328816 0.200032 0.125748 76 0 153
-0.311699 0.398930 -0.283840 76 0 153
0.224817 0.937338 -0.069926 76 0 153
-0.027763 -0.255868 -0.287715 76 0 153
-0.073638 -0.521395 -0.287715 76 0 153
-0.328822 -0.302740 -0.132852 76 0 153
0.164391 0.244025 0.299950 0 0 255
-0.324773 -0.015554 0.290910 0 0 255
0.319367 0.014473 -0.257264 76 0 153
0.319895 0.388720 0.212069 76 0 153
0.320245 -0.271847 -0.018959 76 0 153
-0.246136 0.936340 0.107028 76 0 153
-0.072500 0.617846 -0.287715 76 0 153
0.288864 0.288020 0.302371 0 0 255
-0.018969 -0.148640 -0.287716 76 0 153
0.059223 0.388502 0.301003 0 0 255
0.306854 -0.540704 -0.282258 76 0 153
-0.328821 0.318384 -0.142782 76 0 153
-0.321053 -0.308376 0.314232 153 0 76
0.007833 0.407995 -0.287716 76 0 153
0.320096 -0.442600 -0.112911 76 0 153
-0.328815 0.179564 0.189589 76 0 153
0.314580 -0.848594 0.290505 76 0 153
-0.328821 0.485938 -0.115987 76 0 153
-0.073483 0.176410 0.300862 0 0 255
0.176093 -0.410805 -0.287719 76 0 153
0.320268 0.431904 0.064912 76 0 153
0.319145 -0.749817 0.089374 76 0 153
0.060538 -0.584950 0.301229 76 0 153
0.181290 -0.170238 -0.287719 76 0 153
-0.190825 0.937006 -0.243843 76 0 153
0.080539 -0.669276 -0.287717 76 0 153
-0.328823 0.839575 -0.223818 76 0 153
-0.328815 -0.528320 0.212153 76 0 153
-0.328819 0.408201 -0.054454 76 0 153
0.319904 -0.309496 0.202351 76 0 153
0.320311 0.434791 -0.102556 76 0 153
0.185329 -0.543446 0.301912 76 0 153
0.131490 0.858497 -0.287718 76 0 153
0.319168 -0.854375 -0.151907 76 0 153
0.230303 -0.547205 -0.287720 76 0 153
0.320258 -0.677487 -0.080326 76 0 153
0.244159 0.867874 0.297951 0 0 255
-0.328823 -0.641715 -0.199994 76 0 153
-0.144836 -0.253330 0.302072 76 0 153
0.319339 0.779736 0.025547 76 0 153
-0.328507 0.901372 -0.190254 76 0 153
0.110329 -0.064815 0.300584 0 0 255
0.235108 -0.880431 -0.193362 76 0 153
0.242851 -0.740390 0.302065 76 0 153
-0.128364 -0.687750 -0.287714 76 0 153
0.319096 -0.676636 0.191162 76 0 153
0.015039 0.642021 -0.287716 76 0 153
0.319414 0.428686 0.232310 0 0 255
-0.003795 0.739737 0.297991 0 0 255
-0.328823 0.433054 -0.220991 76 0 153
-0.283307 -0.281946 0.311166 76 0 153
-0.026754 0.282245 -0.287715 76 0 153
0.270533 -0.220235 0.302295 76 0 153
-0.244730 0.937338 -0.223073 76 0 153
0.319902 0.031184 0.140034 76 0 153
-0.328215 0.069227 -0.252421 76 0 153
0.320250 -0.776296 -0.080079 76 0 153
0.320305 0.240649 -0.111479 76 0 153
-0.031737 0.936340 0.117912 76 0 153
0.319767 0.227170 -0.231830 76 0 153
0.319949 -0.319611 0.016043 76 0 153
0.079045 0.937338 0.033461 76 0 153
0.308813 -0.881814 0.159106 76 0 153
-0.328817 0.416761 0.041122 76 0 153
0.216114 0.648802 -0.287719 76 0 153
0.101111 0.937070 0.242838 76 0 153
0.214097 -0.212196 -0.287719 76 0 153
-0.328817 -0.033423 0.101147 76 0 153
-0.110928 0.508762 -0.287714 76 0 153
-0.335904 -0.552085 0.288870 76 0 153
0.036763 0.742513 -0.287716 76 0 153
-0.014599 -0.880434 0.192969 76 0 153
0.319661 -0.252422 0.157266 76 0 153
0.320074 -0.261831 0.246980 76 0 153
0.013824 -0.030536 -0.287716 76 0 153
0.117815 -0.186415 -0.287718 76 0 153
-0.121869 -0.880434 -0.026057 76 0 153
-0.165879 -0.888750 0.284047 76 0 153
-0.228248 -0.659657 -0.287712 76 0 153
-0.055249 0.926103 -0.281592 76 0 153
0.168995 0.634474 -0.287719 76 0 153
0.210259 -0.880434 0.149945 76 0 153
-0.269763 0.385697 -0.287711 76 0 153
0.285715 -0.212390 -0.287022 76 0 153
-0.328816 0.469456 0.086531 76 0 153
-0.328822 -0.716069 -0.182385 76 0 153
0.236169 0.937022 0.274998 0 0 255
0.251588 0.148859 0.301375 0 0 255
-0.218792 -0.883757 0.309090 76 0 153
0.270768 -0.570717 0.302017 76 0 153
-0.328670 0.240824 0.259674 0 0 255
0.131635 -0.289319 0.302067 76 0 153
0.319946 0.849738 -0.010201 76 0 153
0.319222 0.167561 0.175644 76 0 153
0.319095 -0.740085 0.168458 76 0 153
0.319450 0.790467 -0.198269 76 0 153
0.320024 0.630844 -0.014961 76 0 153
-0.198356 -0.841767 0.302988 76 0 153
-0.328820 0.874133 -0.058682 76 0 153
-0.054957 -0.659063 -0.287715 76 0 153
-0.328820 -0.332570 -0.027694 76 0 153
-0.267759 0.263888 -0.287711 76 0 153
-0.328815 0.500638 0.169584 76 0 153
-0.328815 -0.097441 0.191605 76 0 153
-0.059769 -0.725311 -0.287715 76 0 153
0.232512 0.424487 0.299486 0 0 255
-0.328818 0.711761 0.024605 76 0 153
0.308036 -0.882584 -0.015949 76 0 153
-0.316014 0.787478 -0.281810 76 0 153
0.150308 0.198417 0.300071 0 0 255
-0.014996 -0.645548 0.301088 76 0 153
-0.328667 0.198622 -0.239998 76 0 153
0.319317 0.742723 0.061242 76 0 153
0.320289 0.524443 -0.017535 76 0 153
-0.328817 -0.105969 0.095874 76 0 153
-0.328823 0.312932 -0.215698 76 0 153
-0.328687 0.421931 0.212682 76 0 153
-0.039594 0.937338 -0.068660 76 0 153
0.318999 0.455891 -0.260038 76 0 153
-0.326450 0.267504 -0.265083 76 0 153
-0.201888 0.736758 0.298586 0 0 255
-0.153529 0.936590 0.233808 76 0 153
0.319102 -0.854566 -0.115935 76 0 153
-0.328818 -0.218965 0.047750 76 0 153
0.083920 0.697452 -0.287717 76 0 153
-0.328819 0.571358 -0.014310 76 0 153
-0.312645 0.335501 0.306928 255 0 0
-0.053047 0.937338 -0.203678 76 0 153
-0.150017 -0.480446 0.302072 76 0 153
-0.328343 0.630164 0.237459 76 0 153
-0.285242 0.190830 -0.287388 76 0 153
0.188971 0.611445 0.297790 0 0 255
0.005368 0.933313 -0.269976 76 0 153
0.319240 0.173320 0.105458 76 0 153
-0.328822 -0.654981 -0.159990 76 0 153
-0.328819 0.646463 -0.014587 76 0 153
0.190648 -0.880434 -0.038471 76 0 153
-0.122196 -0.104163 0.301750 0 0 255
0.109393 -0.880434 0.091675 76 0 153
0.222401 0.094970 0.300897 0 0 255
0.320165 0.208164 -0.027145 76 0 153
-0.328822 0.461436 -0.144972 76 0 153
-0.328816 -0.647990 0.164916 76 0 153
-0.139601 0.359121 -0.287714 76 0 153
0.203553 0.114070 -0.287719 76 0 153
-0.328311 0.367852 0.230082 76 0 153
0.320326 0.785721 -0.035721 76 0 153
0.320283 0.508282 0.007175 76 0 153
-0.277911 0.923033 -0.283147 76 0 153
-0.331535 -0.287665 0.280708 76 0 153
-0.276085 0.227528 0.306345 0 0 255
-0.213174 0.302586 -0.287712 76 0 153
-0.190136 0.214915 -0.287713 76 0 153
-0.248134 -0.627728 -0.287712 76 0 153
0.230737 0.937338 -0.115562 76 0 153
0.319167 -0.834351 0.217482 76 0 153
0.182190 -0.617590 0.301067 76 0 153
0.319576 0.519257 0.136285 76 0 153
-0.079572 -0.880434 -0.125797 76 0 153
0.276043 0.678366 0.301573 0 0 255
-0.141757 -0.880434 0.081292 76 0 153
-0.328820 -0.190222 -0.030316 76 0 153
0.319279 -0.368624 0.029049 76 0 153
-0.201379 -0.635793 -0.287713 76 0 153
-0.198332 0.211285 0.302146 0 0 255
-0.328816 -0.819660 0.164068 76 0 153
-0.292090 -0.851108 -0.286376 76 0 153
-0.005956 0.804363 -0.287716 76 0 153
0.320268 -0.199318 -0.038412 76 0 153
-0.151223 0.433425 -0.287713 76 0 153
0.320248 -0.515173 -0.059020 76 0 153
0.067287 0.673908 -0.287717 76 0 153
0.295622 0.512317 0.301827 0 0 255
-0.279808 0.722947 0.300826 0 0 255
0.320072 0.040474 0.091927 76 0 153
-0.328822 0.427663 -0.174217 76 0 153
-0.328819 0.117147 0.002307 76 0 153
-0.328819 0.207398 -0.029856 76 0 153
-0.328818 0.617379 0.008847 76 0 153
-0.218567 -0.880434 -0.205040 76 0 153
0.236331 0.238325 0.299834 0 0 255
0.307830 0.746196 0.298783 0 0 255
-0.101405 -0.581715 -0.287714 76 0 153
-0.328815 0.399063 0.161526 76 0 153
0.077235 -0.457590 -0.287717 76 0 153
0.320284 -0.761527 -0.133269 76 0 153
-0.328815 -0.191838 0.187999 76 0 153
0.135257 -0.880434 -0.190641 76 0 153
0.000742 -0.860997 -0.284991 76 0 153
-0.301690 0.934953 0.225761 76 0 153
0.078808 -0.880434 -0.189082 76 0 153
-0.328817 -0.357978 0.077005 76 0 153
-0.328818 -0.303673 0.072030 76 0 153
0.164427 0.937305 0.155737 76 0 153
-0.228285 -0.885612 0.266322 76 0 153
-0.090878 0.817605 0.298261 0 0 255
0.244528 -0.294358 -0.287720 76 0 153
-0.328817 0.626084 0.068420 76 0 153
0.287775 0.235113 0.302378 0 0 255
0.296021 0.157437 -0.285478 76 0 153
0.173001 -0.100011 -0.287719 76 0 153
-0.160489 0.209705 -0.287713 76 0 153
-0.032539 -0.880434 -0.131268 76 0 153
0.137014 -0.103549 0.300932 0 0 255
-0.010907 0.476464 -0.287716 76 0 153
0.173588 0.100383 0.300376 0 0 255
0.320018 -0.789256 0.012917 76 0 153
-0.064204 -0.322308 -0.287715 76 0 153
-0.260612 -0.881205 -0.189564 76 0 153
-0.283496 -0.030562 0.302344 0 0 255
-0.165134 -0.880434 0.098611 76 0 153
0.319309 0.703045 0.100822 76 0 153
0.014194 0.273067 0.299972 0 0 255
0.021733 -0.520580 0.302069 76 0 153
0.186528 0.164249 0.300696 0 0 255
0.175512 -0.679364 0.301136 76 0 153
0.320317 -0.727015 -0.198150 76 0 153
-0.272606 -0.150748 -0.287710 76 0 153
0.112778 -0.140500 -0.287718 76 0 153
-0.328815 0.482386 0.138605 76 0 153
0.055174 -0.503793 0.302069 76 0 153
-0.106299 0.067086 -0.287714 76 0 153
-0.258823 -0.880967 -0.153475 76 0 153
-0.299214 0.935645 -0.191765 76 0 153
0.212264 0.667752 0.296832 0 0 255
-0.328823 -0.772252 -0.195518 76 0 153
-0.059972 -0.880434 0.028442 76 0 153
-0.301489 0.234699 -0.286007 76 0 153
0.058898 -0.373066 -0.287717 76 0 153
-0.328815 -0.422719 0.204262 76 0 153
-0.291078 -0.411052 0.301992 76 0 153
-0.193743 0.697776 0.298536 0 0 255
-0.207930 -0.454305 -0.287712 76 0 153
0.263400 -0.686049 0.301885 76 0 153
-0.328817 0.570962 0.036679 76 0 153
-0.328820 0.694019 -0.067188 76 0 153
-0.299968 0.639178 0.301434 0 0 255
-0.008339 -0.675262 0.301200 76 0 153
-0.328820 0.795545 -0.099149 76 0 153
0.319342 0.632634 0.063316 76 0 153
0.320309 0.054105 -0.129865 76 0 153
0.020963 -0.858674 0.305981 76 0 153
-0.084717 0.020194 -0.287714 76 0 153
-0.215382 -0.126144 0.301828 0 0 255
0.320162 -0.520995 0.115855 76 0 153
0.190772 0.441091 0.299057 0 0 255
-0.102447 -0.272104 0.302071 76 0 153
-0.328817 -0.220212 0.117095 76 0 153
-0.328818 -0.220041 0.017907 76 0 153
0.096983 -0.605429 0.301069 76 0 153
-0.167190 -0.013545 0.301432 0 0 255
-0.199809 -0.880434 0.176763 76 0 153
-0.328670 -0.231270 0.244461 76 0 153
-0.267783 -0.072078 -0.287711 76 0 153
0.320326 0.039994 -0.185759 76 0 153
0.319856 -0.843948 -0.200023 76 0 153
-0.314893 -0.608327 0.297007 76 0 153
0.160200 0.378158 0.299188 0 0 255
0.011842 0.146469 -0.287716 76 0 153
-0.328821 -0.530531 -0.108653 76 0 153
-0.141765 -0.814171 -0.287714 76 0 153
0.320317 -0.626939 -0.197329 76 0 153
-0.044090 -0.281187 -0.287715 76 0 153
0.121881 -0.880434 -0.145177 76 0 153
0.222428 0.685389 -0.287720 76 0 153
-0.008500 0.009401 0.301317 0 0 255
-0.055547 -0.340541 0.302070 76 0 153
-0.106730 0.538816 -0.287714 76 0 153
0.320295 0.306338 -0.048269 76 0 153
0.037966 -0.728681 0.301766 76 0 153
-0.328816 0.362319 0.091973 76 0 153
-0.021220 -0.603106 0.301071 76 0 153
0.099940 0.321601 -0.287718 76 0 153
0.027422 0.108417 -0.287716 76 0 153
0.150212 0.937339 0.121895 76 0 153
-0.328699 0.666457 0.268702 0 0 255
-0.065825 0.358863 0.301504 0 0 255
-0.328816 -0.689607 0.141636 76 0 153
0.251248 0.861110 -0.287720 76 0 153
0.173427 -0.409747 0.301372 76 0 153
-0.182910 0.120320 -0.287713 76 0 153
0.023775 0.595402 0.298101 0 0 255
-0.328815 0.009813 0.192186 76 0 153
0.092401 0.840546 0.296465 0 0 255
-0.328820 -0.447429 -0.056179 76 0 153
0.222042 0.100251 -0.287720 76 0 153
-0.329557 -0.265881 0.265822 76 0 153
0.286834 -0.459574 0.301471 76 0 153
-0.112008 -0.066797 -0.287714 76 0 153
0.320257 -0.227866 -0.026856 76 0 153
-0.293261 -0.464305 -0.287134 76 0 153
-0.070363 0.082134 0.301077 0 0 255
0.319960 -0.658387 0.275832 76 0 153
0.320112 0.032011 0.006199 76 0 153
-0.079988 0.936340 0.149801 76 0 153
0.320326 -0.137554 -0.186401 76 0 153
-0.206177 -0.880434 0.094945 76 0 153
0.291292 -0.907162 -0.239390 76 153 0
-0.329162 0.189440 0.268081 0 0 255
0.311994 0.768510 -0.279480 76 0 153
0.116188 -0.880434 0.139505 76 0 153
0.135666 0.696860 0.297504 0 0 255
0.085850 -0.592970 -0.287717 76 0 153
-0.309230 0.200060 0.301388 0 0 255
0.301791 -0.171995 -0.284392 76 0 153
0.320300 -0.622198 -0.165056 76 0 153
-0.328822 0.300517 -0.163708 76 0 153
-0.064695 0.556905 0.298538 0 0 255
-0.135382 0.812620 0.298500 0 0 255
0.320000 0.260202 -0.012249 76 0 153
-0.328818 -0.470781 0.038768 76 0 153
0.319341 0.838175 0.167369 76 0 153
-0.269759 -0.862824 -0.284491 76 0 153
-0.085250 -0.632622 -0.287714 76 0 153
-0.328819 -0.288099 -0.023229 76 0 153
0.074406 -0.880434 -0.040457 76 0 153
-0.173448 0.936342 0.066971 76 0 153
-0.095717 0.937338 -0.166150 76 0 153
0.195951 0.140711 0.300639 0 0 255
0.026998 0.696720 -0.287716 76 0 153
-0.311585 -0.374399 -0.283893 76 0 153
-0.250294 -0.406794 0.330542 153 0 76
-0.328817 -0.182279 0.086889 76 0 153
-0.155180 -0.880434 0.006314 76 0 153
-0.052091 0.039692 0.301210 0 0 255
-0.328816 0.683746 0.093240 76 0 153
0.080195 0.483168 -0.287717 76 0 153
-0.229603 -0.516537 0.331926 153 0 76
-0.328818 0.085025 0.053431 76 0 153
-0.328816 0.521103 0.127335 76 0 153
-0.328819 -0.465592 0.002735 76 0 153
-0.328822 -0.488891 -0.125823 76 0 153
-0.328822 0.390460 -0.151213 76 0 153
-0.210991 -0.583114 0.308914 153 0 76
-0.328816 -0.530155 0.123050 76 0 153
0.319858 -0.240427 0.112466 76 0 153
0.320294 0.074101 -0.081655 76 0 153
0.314312 -0.551126 0.292947 76 0 153
-0.327659 -0.347850 -0.257718 76 0 153
-0.071453 0.929456 0.294776 0 0 255
-0.294391 -0.886168 -0.180004 76 0 153
0.147749 0.937337 -0.226128 76 0 153
0.060063 -0.220831 -0.287717 76 0 153
-0.039511 -0.639630 -0.287715 76 0 153
0.260051 0.066732 -0.287720 76 0 153
0.030436 -0.827088 -0.287716 76 0 153
0.057952 0.784832 -0.287717 76 0 153
0.257477 0.471986 -0.287720 76 0 153
-0.027435 -0.880434 0.004761 76 0 153
-0.043741 -0.280245 0.302070 76 0 153
0.273238 0.181037 0.302484 0 0 255
-0.312109 -0.482729 0.299332 76 0 153
-0.328821 0.572607 -0.120849 76 0 153
-0.315062 0.832448 0.298990 0 0 255
0.286126 0.758789 -0.287005 76 0 153
0.319881 -0.507009 0.280351 76 0 153
0.109072 -0.087572 -0.287718 76 0 153
0.320258 -0.754622 -0.085082 76 0 153
-0.238047 -0.629345 0.304453 153 0 76
-0.064791 -0.728497 0.302071 76 0 153
-0.277881 -0.575580 0.303778 76 0 153
-0.043301 -0.880328 -0.240106 76 0 153
-0.321267 0.904759 -0.277490 76 0 153
-0.328819 -0.636307 -0.016854 76 0 153
0.041470 0.460247 0.301848 0 0 255
0.078663 -0.135658 0.301188 0 0 255
-0.027453 0.937338 -0.202664 76 0 153
0.232750 0.288483 -0.287720 76 0 153
0.319941 -0.083687 0.249954 0 0 255
0.319382 -0.794364 0.231954 76 0 153
0.176144 0.175657 -0.287719 76 0 153
-0.344123 0.315310 0.297086 255 0 0
0.216870 0.321243 0.299901 0 0 255
-0.039379 -0.503001 -0.287715 76 0 153
0.242679 0.690616 0.297989 0 0 255
-0.170067 0.618343 -0.287713 76 0 153
-0.328817 0.780527 0.056857 76 0 153
-0.328818 0.074857 0.022969 76 0 153
-0.328780 -0.514336 0.236434 76 0 153
0.067466 -0.021127 -0.287717 76 0 153
-0.295194 0.548787 0.301780 0 0 255
0.319742 0.576983 0.055139 76 0 153
0.153941 -0.880434 0.179598 76 0 153
0.068587 -0.503405 -0.287717 76 0 153
-0.012681 0.925890 -0.281901 76 0 153
-0.132272 0.327287 -0.287714 76 0 153
0.011986 -0.750241 0.301744 76 0 153
0.320267 -0.271911 -0.067217 76 0 153
-0.328819 0.579073 -0.036240 76 0 153
0.319954 -0.435218 -0.072983 76 0 153
-0.308946 0.067945 -0.284875 76 0 153
0.320809 -0.483076 0.263760 76 0 153
-0.137734 -0.880434 -0.069745 76 0 153
0.128510 -0.425351 -0.287718 76 0 153
-0.328640 0.115060 0.220582 76 0 153
0.320277 0.472184 0.030706 76 0 153
0.060297 -0.868438 -0.282705 76 0 153
0.214402 -0.584319 -0.287719 76 0 153
0.110970 0.445094 0.298697 0 0 255
-0.328823 0.335671 -0.203164 76 0 153
0.319916 -0.369455 -0.012908 76 0 153
-0.296765 0.936177 -0.147520 76 0 153
-0.328817 0.468863 0.055299 76 0 153
0.319377 -0.360282 0.123575 76 0 153
-0.284841 -0.895931 -0.220711 0 127 127
0.320118 -0.534239 0.197032 76 0 153
-0.273008 0.936806 -0.246574 76 0 153
0.281627 0.914808 -0.285566 76 0 153
0.131311 -0.889867 0.289944 76 0 153
-0.328818 -0.031856 0.032996 76 0 153
0.314557 -0.482171 0.292491 76 0 153
0.103478 -0.269549 -0.287718 76 0 153
-0.109304 0.068308 0.301126 0 0 255
-0.328817 -0.486188 0.115190 76 0 153
0.319240 0.244995 0.134832 76 0 153
-0.324989 0.535955 0.290418 0 0 255
0.093791 -0.061505 -0.287717 76 0 153
-0.004305 -0.483455 0.302069 76 0 153
-0.327919 0.390603 0.283234 0 0 255
-0.329829 -0.326928 0.258000 76 0 153
0.319094 -0.805130 0.147553 76 0 153
0.245195 -0.530937 0.302064 76 0 153
-0.252478 0.590073 -0.287712 76 0 153
-0.328816 0.366353 0.126656 76 0 153
-0.274911 -0.603531 0.302675 76 0 153
-0.248347 0.335934 -0.287712 76 0 153
0.320030 -0.522871 0.229513 76 0 153
-0.328817 -0.225623 0.080142 76 0 153
0.320235 -0.543944 -0.032105 76 0 153
0.320167 -0.471889 0.078430 76 0 153
-0.328595 0.582907 0.260131 0 0 255
0.184770 -0.035542 0.300447 0 0 255
0.319320 0.748098 0.152185 76 0 153
-0.033036 0.574494 -0.287715 76 0 153
-0.242295 -0.885086 0.306772 76 0 153
0.277467 -0.680215 -0.287374 76 0 153
-0.328823 -0.743870 -0.224157 76 0 153
-0.012516 -0.880434 0.021938 76 0 153
0.068293 -0.667450 0.301069 76 0 153
0.085190 -0.880434 0.023295 76 0 153
-0.291042 0.467644 -0.287205 76 0 153
-0.328818 0.659231 0.035623 76 0 153
-0.292709 -0.185685 -0.287152 76 0 153
0.320273 0.338865 0.046979 76 0 153
-0.130945 -0.568850 0.301498 76 0 153
0.320165 0.303522 0.021633 76 0 153
0.233720 -0.880432 0.145391 76 0 153
-0.328822 0.508352 -0.154329 76 0 153
0.309441 0.776854 0.297904 0 0 255
-0.036229 0.476930 0.302608 0 0 255
-0.040927 0.406424 -0.287715 76 0 153
-0.072273 -0.860725 0.306949 76 0 153
0.262646 -0.882397 -0.000559 76 0 153
-0.328816 0.009472 0.168923 76 0 153
0.286731 -0.187216 0.302069 0 0 255
0.320222 0.168046 -0.086897 76 0 153
-0.192296 -0.721941 -0.287713 76 0 153
0.317037 0.382256 0.289846 0 0 255
-0.328534 0.260017 -0.243666 76 0 153
-0.328360 0.628048 -0.248445 76 0 153
-0.026298 -0.880403 0.211573 76 0 153
-0.328818 0.761812 -0.002827 76 0 153
0.041480 0.937338 -0.041291 76 0 153
0.193079 -0.262393 0.301776 76 0 153
-0.257813 0.936365 0.150456 76 0 153
-0.131157 0.439195 0.298783 0 0 255
0.206480 0.552281 0.298476 0 0 255
-0.174537 0.545960 0.298355 0 0 255
0.320294 -0.723582 -0.153617 76 0 153
-0.139306 0.884763 -0.287713 76 0 153
0.175861 0.937338 0.042393 76 0 153
0.320342 0.860206 -0.128514 76 0 153
0.178005 -0.473198 0.302067 76 0 153
-0.328819 0.789523 -0.006707 76 0 153
-0.245474 0.773522 0.298491 0 0 255
-0.328823 0.244219 -0.216234 76 0 153
-0.328817 0.387371 0.075585 76 0 153
-0.328816 -0.686831 0.166561 76 0 153
0.320328 -0.802642 -0.220092 76 0 153
0.121677 -0.880434 0.053764 76 0 153
0.320194 -0.511748 0.051219 76 0 153
-0.328818 0.001888 0.056545 76 0 153
0.319812 0.248732 -0.214902 76 0 153
0.083621 0.032151 0.301056 0 0 255
-0.065874 -0.397932 0.302070 76 0 153
0.103657 0.773297 -0.287718 76 0 153
0.048338 -0.196255 -0.287717 76 0 153
-0.174353 0.927419 -0.279705 76 0 153
-0.298912 -0.746119 -0.286399 76 0 153
0.058726 0.937338 -0.096630 76 0 153
-0.328816 -0.321259 0.127194 76 0 153
-0.312620 -0.271764 0.303410 76 0 153
-0.281906 0.799449 0.300801 0 0 255
0.242712 0.905793 0.297581 0 0 255
0.198098 -0.230580 -0.287719 76 0 153
0.000547 -0.788700 0.301514 76 0 153
0.022501 0.936691 0.210095 76 0 153
0.320283 0.058139 -0.045618 76 0 153
0.321490 0.774605 0.268149 0 0 255
0.319510 0.547348 0.113019 76 0 153
0.319870 -0.327360 0.053917 76 0 153
0.138592 0.289696 0.300443 0 0 255
-0.042078 -0.880434 -0.104736 76 0 153
0.218349 0.485276 -0.287719 76 0 153
0.319616 -0.653026 0.062559 76 0 153
0.315986 0.594626 -0.272900 76 0 153
-0.221842 0.178890 -0.287712 76 0 153
-0.028878 0.135318 0.300901 0 0 255
0.056834 -0.622424 -0.287717 76 0 153
-0.254193 0.346761 0.323738 255 0 0
0.268776 -0.778919 -0.287720 76 0 153
0.319275 0.556326 0.152393 76 0 153
-0.328818 0.317744 0.022132 76 0 153
-0.326497 0.916225 -0.022138 76 0 153
0.320249 0.313813 0.133004 76 0 153
-0.328513 0.248703 0.225174 76 0 153
-0.245272 0.506492 -0.287712 76 0 153
0.305518 0.932184 -0.046707 76 0 153
-0.187929 0.464564 -0.287713 76 0 153
-0.230725 0.540433 0.299064 0 0 255
0.254705 -0.307811 0.302219 76 0 153
0.320333 0.541430 -0.190461 76 0 153
0.319785 -0.565155 0.277158 76 0 153
-0.298997 -0.424803 -0.286386 76 0 153
0.317966 0.816284 0.290770 0 0 255
0.320228 0.327989 0.221771 76 0 153
-0.222450 0.495123 0.299372 0 0 255
0.217400 -0.880434 0.042133 76 0 153
0.319266 0.230173 0.028035 76 0 153
0.320315 -0.045112 -0.152352 76 0 153
0.298721 0.830999 0.301518 0 0 255
-0.328352 0.500172 0.263629 0 0 255
-0.328817 0.232763 0.074377 76 0 153
-0.130123 -0.026036 0.301475 0 0 255
0.319530 0.682371 0.012601 76 0 153
-0.328763 -0.581518 0.220866 76 0 153
0.320050 -0.445382 0.067317 76 0 153
0.294402 -0.125982 -0.285783 76 0 153
0.187429 0.937093 0.240945 76 0 153
0.319571 -0.010675 0.228293 76 0 153
-0.276779 -0.535244 0.327767 153 0 76
0.249698 0.789617 -0.287720 76 0 153
0.320315 0.583868 -0.119761 76 0 153
0.018980 -0.459697 0.302069 76 0 153
0.320293 0.826861 -0.139819 76 0 153
-0.319670 -0.882118 -0.048764 76 0 153
0.090824 0.539149 0.298100 0 0 255
-0.245937 0.937338 -0.057340 76 0 153
0.320230 0.412125 0.149613 76 0 153
-0.328815 -0.219248 0.201835 76 0 153
-0.245214 0.869873 0.298786 0 0 255
-0.298772 -0.549639 -0.286420 76 0 153
-0.092548 -0.213342 0.301899 76 0 153
0.320328 0.503403 -0.170072 76 0 153
-0.328821 -0.318966 -0.109003 76 0 153
0.108282 -0.487274 -0.287718 76 0 153
0.002262 0.691857 -0.287716 76 0 153
0.309349 0.293736 0.297913 0 0 255
-0.328821 0.651158 -0.131382 76 0 153
-0.328815 0.053719 0.184855 76 0 153
-0.328819 0.502681 -0.046966 76 0 153
0.317315 -0.215237 0.287548 76 0 153
-0.328823 -0.255198 -0.212858 76 0 153
0.098699 -0.754668 0.301991 76 0 153
-0.250281 -0.345918 0.333176 153 0 76
0.319923 0.682845 0.223051 76 0 153
-0.328823 -0.365731 -0.205460 76 0 153
-0.011752 -0.210172 -0.287716 76 0 153
0.144039 -0.705579 -0.287718 76 0 153
0.255093 0.922242 -0.283591 76 0 153
-0.074629 -0.880405 0.229757 76 0 153
-0.135425 0.010864 -0.287714 76 0 153
0.037576 -0.176506 0.301371 0 0 255
0.319354 -0.400455 0.062333 76 0 153
0.221327 0.937338 0.044099 76 0 153
-0.051626 -0.476430 0.302070 76 0 153
0.320332 0.417722 -0.188679 76 0 153
0.303725 0.932982 0.137781 76 0 153
0.320280 -0.295020 -0.104521 76 0 153
0.056621 -0.767936 0.301545 76 0 153
0.319440 0.807097 -0.251236 76 0 153
0.010539 -0.140934 -0.287716 76 0 153
0.320334 0.343863 -0.195942 76 0 153
-0.328822 -0.606885 -0.228890 76 0 153
0.098320 0.937338 0.002584 76 0 153
-0.040943 0.937338 -0.180024 76 0 153
0.032498 0.799524 -0.287716 76 0 153
0.320267 -0.250224 -0.238010 76 0 153
-0.328822 -0.558175 -0.174323 76 0 153
0.319822 -0.330624 0.161200 76 0 153
-0.283803 0.507052 0.301767 0 0 255
0.056116 -0.244826 0.302007 76 0 153
0.014468 0.267718 -0.287716 76 0 153
-0.203510 -0.772334 -0.287713 76 0 153
-0.202652 0.331821 0.304634 0 0 255
0.319576 -0.362604 -0.183572 76 0 153
-0.328820 0.145783 -0.078187 76 0 153
-0.082687 -0.056468 -0.287715 76 0 153
-0.328822 -0.454130 -0.160410 76 0 153
-0.187817 -0.156380 0.301934 0 0 255
0.320297 0.263736 -0.069342 76 0 153
-0.328814 0.524391 0.180113 76 0 153
0.235948 0.936625 -0.253202 76 0 153
0.320285 0.484748 -0.001298 76 0 153
0.320278 -0.659009 -0.121701 76 0 153
0.208020 0.140717 -0.287719 76 0 153
-0.328821 -0.231705 -0.100619 76 0 153
-0.328819 -0.815679 -0.009513 76 0 153
0.286884 -0.746891 0.301383 76 0 153
0.319793 0.024044 0.107445 76 0 153
0.277323 -0.868878 -0.251505 76 153 0
0.121987 -0.883174 0.251223 76 0 153
-0.226184 -0.880434 0.146002 76 0 153
0.320262 0.121608 0.023527 76 0 153
0.253246 0.708511 -0.287720 76 0 153
0.218706 -0.448590 0.301986 76 0 153
-0.172168 -0.701826 0.302073 76 0 153
-0.151615 0.218719 0.300817 0 0 255
0.315174 0.719250 -0.274612 76 0 153
0.319850 0.891986 -0.247807 76 0 153
-0.294013 -0.182605 0.302287 0 0 255
0.320320 -0.604476 -0.203241 76 0 153
-0.328820 0.367345 -0.081271 76 0 153
0.191351 0.482536 0.298820 0 0 255
-0.328816 0.338257 0.087162 76 0 153
0.227758 0.470715 0.299032 0 0 255
-0.093831 0.934533 -0.264428 76 0 153
-0.008822 0.280423 0.300088 0 0 255
0.171337 -0.227476 0.301899 76 0 153
-0.056331 0.253094 -0.287715 76 0 153
0.165125 0.644582 0.297307 0 0 255
-0.128857 0.667818 -0.287714 76 0 153
-0.046128 0.593610 0.298402 0 0 255
0.043134 0.371052 -0.287717 76 0 153
0.319958 0.173973 -0.200018 76 0 153
-0.059108 0.937337 -0.229358 76 0 153
0.305416 0.351816 0.300090 0 0 255
-0.103302 0.721862 -0.287714 76 0 153
-0.175880 -0.880434 0.013248 76 0 153
-0.131158 -0.880434 0.179690 76 0 153
-0.328821 0.080070 -0.097664 76 0 153
0.319261 0.246936 0.057216 76 0 153
0.320028 0.612184 -0.115355 76 0 153
0.320253 -0.638748 -0.069749 76 0 153
0.100418 0.237523 0.300269 0 0 255
0.320338 0.533897 -0.211786 76 0 153
-0.234954 0.839050 0.298788 0 0 255
-0.288662 -0.161629 0.302644 0 0 255
0.319569 0.661037 -0.068424 76 0 153
-0.328817 0.808583 0.039026 76 0 153
-0.150659 -0.653164 -0.287713 76 0 153
0.320299 -0.539588 -0.160983 76 0 153
-0.249724 0.854914 -0.287712 76 0 153
0.320036 0.090684 -0.245050 76 0 153
-0.328822 -0.616310 -0.162219 76 0 153
-0.056677 -0.707751 0.302007 76 0 153
0.166935 -0.880434 -0.124596 76 0 153
-0.260659 0.202419 -0.287711 76 0 153
0.152036 -0.705693 0.301572 76 0 153
-0.081516 0.488269 0.298845 0 0 255
0.062707 -0.142056 -0.287717 76 0 153
0.292754 0.935496 0.175718 76 0 153
0.319265 -0.647434 0.019276 76 0 153
0.073017 0.097553 -0.287717 76 0 153
0.319834 -0.426292 -0.129158 76 0 153
-0.156593 -0.880434 0.135603 76 0 153
-0.297417 -0.119297 -0.286626 76 0 153
-0.196603 -0.247670 0.303038 153 0 76
0.237376 0.713467 0.297397 0 0 255
-0.268764 -0.136443 0.302564 0 0 255
-0.328819 0.884391 -0.018658 76 0 153
0.319167 0.684298 -0.256585 76 0 153
0.220242 0.362305 0.299445 0 0 255
-0.193323 0.236146 -0.287713 76 0 153
0.319596 -0.298051 0.149379 76 0 153
-0.168855 0.743063 0.298755 0 0 255
-0.328818 -0.238150 0.033125 76 0 153
-0.080917 -0.806992 -0.287715 76 0 153
-0.196252 -0.751974 0.302073 76 0 153
-0.328816 -0.349851 0.150530 76 0 153
-0.222513 -0.086303 0.301689 0 0 255
-0.177789 0.937338 -0.174549 76 0 153
-0.328819 0.634985 -0.061656 76 0 153
-0.315684 0.786260 0.298662 0 0 255
-0.081120 0.629733 0.298508 0 0 255
-0.328655 0.380549 -0.240316 76 0 153
-0.300390 0.939158 0.286932 0 0 255
0.100417 0.511083 -0.287718 76 0 153
-0.207799 0.936811 0.245655 76 0 153
-0.104826 -0.341269 0.302071 76 0 153
-0.049739 -0.880434 0.056107 76 0 153
0.320292 0.451311 -0.028388 76 0 153
-0.303947 -0.222467 0.300580 76 0 153
0.320321 0.565945 -0.142665 76 0 153
0.212332 -0.629802 -0.287719 76 0 153
-0.328821 -0.263655 -0.105011 76 0 153
-0.062879 0.202279 -0.287715 76 0 153
-0.328822 0.070473 -0.179561 76 0 153
-0.328819 -0.774220 -0.014660 76 0 153
-0.209424 -0.608476 -0.287712 76 0 153
0.107804 -0.392766 0.301568 76 0 153
0.319912 0.157789 -0.245595 76 0 153
0.320317 0.747535 -0.058235 76 0 153
-0.079313 0.344579 -0.287715 76 0 153
-0.058415 -0.880434 0.182428 76 0 153
-0.328820 0.269257 -0.093426 76 0 153
0.319734 -0.648737 0.098269 76 0 153
0.319081 -0.754369 0.209047 76 0 153
0.118567 -0.634060 -0.287718 76 0 153
0.319279 0.577958 0.114250 76 0 153
0.320293 -0.684773 -0.150560 76 0 153
-0.276253 0.314527 -0.287672 76 0 153
-0.328823 0.053408 -0.211186 76 0 153
-0.064040 -0.448645 -0.287715 76 0 153
0.316606 -0.024607 -0.271593 76 0 153
-0.282694 0.267137 0.305976 0 0 255
-0.296319 -0.886480 0.144829 76 0 153
-0.313854 0.931549 -0.229161 76 0 153
-0.225718 0.206935 0.325222 255 0 0
0.012815 -0.880434 -0.015192 76 0 153
-0.328816 -0.433283 0.134124 76 0 153
-0.012130 -0.621402 -0.287716 76 0 153
0.114000 0.487407 0.298482 0 0 255
0.010028 -0.235565 -0.287716 76 0 153
-0.328822 0.891419 -0.167822 76 0 153
0.319365 -0.046281 0.175637 76 0 153
0.260854 -0.556181 -0.287720 76 0 153
-0.328815 0.300883 0.151041 76 0 153
-0.145492 0.936613 0.155287 76 0 153
-0.328390 -0.401073 -0.247614 76 0 153
0.190812 0.937338 0.090548 76 0 153
-0.328815 0.814833 0.166172 76 0 153
-0.144378 0.238737 -0.287713 76 0 153
-0.024306 -0.749486 -0.287715 76 0 153
0.295075 -0.019052 0.301370 0 0 255
0.274172 0.937112 -0.053539 76 0 153
0.319214 -0.175076 0.091207 76 0 153
0.319536 0.209952 -0.244863 76 0 153
-0.328815 0.671403 0.163944 76 0 153
0.320293 -0.232226 -0.107562 76 0 153
-0.252730 -0.897008 0.257949 127 0 127
-0.329574 -0.406240 0.268232 76 0 153
-0.280721 0.936280 0.175094 76 0 153
0.066397 -0.332144 0.301741 76 0 153
0.319122 -0.740974 0.128258 76 0 153
-0.074264 -0.284035 0.302070 76 0 153
0.320311 0.260023 -0.123290 76 0 153
-0.189834 0.123672 0.300935 0 0 255
-0.328820 -0.151244 -0.047154 76 0 153
0.223698 -0.419416 -0.287720 76 0 153
-0.143781 -0.880434 -0.115045 76 0 153
0.136284 -0.623406 0.301069 76 0 153
-0.106570 0.937338 -0.087871 76 0 153
0.319690 -0.213313 0.144540 76 0 153
0.042014 0.009843 -0.287717 76 0 153
-0.018148 -0.672838 -0.287716 76 0 153
-0.328814 0.311848 0.179445 76 0 153
0.320027 0.613485 -0.197497 76 0 153
0.319188 -0.095712 0.182121 76 0 153
-0.328823 0.540836 -0.208074 76 0 153
-0.054274 -0.538602 0.301996 76 0 153
0.033948 -0.315685 0.302013 76 0 153
0.060155 -0.880434 0.122567 76 0 153
-0.146749 -0.766909 -0.287713 76 0 153
-0.132687 0.714735 -0.287714 76 0 153
0.086094 -0.427834 0.301794 76 0 153
0.319251 0.205000 0.080340 76 0 153
-0.079428 -0.304203 -0.287715 76 0 153
0.118547 -0.880434 0.118375 76 0 153
-0.053166 0.514220 0.299246 0 0 255
0.127262 -0.238269 0.301947 76 0 153
0.314626 0.189307 -0.275765 76 0 153
0.147232 -0.880434 0.122116 76 0 153
-0.328822 0.570570 -0.156385 76 0 153
-0.294928 0.884347 0.301564 0 0 255
0.208892 0.861209 -0.287719 76 0 153
-0.328818 0.821719 0.004129 76 0 153
0.320267 -0.517771 -0.097037 76 0 153
0.319839 0.789795 -0.154390 76 0 153
0.319199 -0.130689 0.145864 76 0 153
0.320278 0.352992 0.028288 76 0 153
0.319796 -0.422256 -0.188150 76 0 153
0.014948 -0.880434 0.151074 76 0 153
-0.328817 -0.188839 0.107286 76 0 153
0.116097 0.936563 0.145944 76 0 153
-0.162835 0.045214 0.301217 0 0 255
-0.328816 -0.591052 0.155437 76 0 153
0.095982 -0.466735 0.302068 76 0 153
-0.106286 -0.019748 0.301450 0 0 255
0.320020 -0.501150 0.236544 76 0 153
0.049360 0.936340 0.093632 76 0 153
-0.328820 -0.470302 -0.051406 76 0 153
-0.328818 -0.658853 0.017258 76 0 153
-0.216230 -0.004602 0.307145 0 0 255
0.166569 0.608733 -0.287719 76 0 153
0.302611 -0.846272 -0.283691 76 0 153
-0.255782 -0.558337 -0.287712 76 0 153
0.069435 0.937207 0.056312 76 0 153
-0.117217 0.045184 0.301206 0 0 255
-0.240405 0.772882 -0.287712 76 0 153
-0.328821 -0.085322 -0.097984 76 0 153
-0.328821 0.842377 -0.117115 76 0 153
-0.254244 -0.100086 -0.287712 76 0 153
-0.202172 -0.433800 -0.287713 76 0 153
0.318006 -0.856464 0.090990 76 0 153
-0.283277 -0.343974 0.306984 76 0 153
0.075113 0.936340 0.136030 76 0 153
0.059507 -0.122663 0.301176 0 0 255
0.191261 -0.322933 0.301978 76 0 153
-0.328764 -0.554146 0.214310 76 0 153
0.299102 -0.003025 -0.284898 76 0 153
-0.318786 -0.883430 0.047122 76 0 153
-0.324786 -0.867658 0.147025 76 0 153
-0.328804 0.764187 0.265795 0 0 255
-0.328823 -0.206131 -0.214905 76 0 153
-0.328817 0.183026 0.040555 76 0 153
-0.273038 -0.453682 -0.287710 76 0 153
-0.128086 0.924994 -0.282657 76 0 153
0.320288 0.160534 -0.059131 76 0 153
-0.167588 -0.880434 0.051978 76 0 153
0.239374 -0.599716 -0.287720 76 0 153
-0.106837 -0.855952 0.305797 76 0 153
0.318868 -0.845507 0.236473 76 0 153
-0.328822 -0.772273 -0.148570 76 0 153
0.319740 0.402752 0.230427 0 0 255
-0.328823 -0.149456 -0.216019 76 0 153
-0.328819 -0.563792 -0.015784 76 0 153
-0.055450 -0.067864 0.301621 0 0 255
0.053447 0.305359 0.300271 0 0 255
0.103135 -0.347666 -0.287718 76 0 153
-0.328812 -0.774795 0.239992 76 0 153
0.297817 0.934344 -0.163150 76 0 153
-0.041692 0.872602 -0.287715 76 0 153
0.319180 -0.139542 0.181983 76 0 153
-0.217238 -0.705932 0.302074 76 0 153
0.043674 -0.880434 -0.008589 76 0 153
-0.328823 -0.535284 -0.203171 76 0 153
0.319498 -0.080468 0.206861 76 0 153
-0.172747 -0.612333 0.301541 76 0 153
-0.271057 0.926928 0.298239 0 0 255
-0.027533 0.936340 0.150500 76 0 153
-0.144603 -0.880434 -0.023382 76 0 153
-0.248986 0.167401 0.328714 255 0 0
0.320261 -0.572344 -0.086684 76 0 153
-0.328823 -0.799357 -0.216499 76 0 153
-0.328817 0.008818 0.085576 76 0 153
-0.046410 -0.184503 0.301912 0 0 255
0.317743 0.905330 -0.265235 76 0 153
0.185019 0.096470 -0.287719 76 0 153
0.172880 0.924837 0.294972 0 0 255
0.255087 0.427998 -0.287720 76 0 153
-0.018014 -0.070257 0.301628 0 0 255
-0.328822 -0.026307 -0.161545 76 0 153
-0.328817 -0.329725 0.100505 76 0 153
-0.157534 -0.327665 -0.287713 76 0 153
-0.156006 -0.210347 0.301897 0 0 255
0.218829 -0.869218 0.309139 76 0 153
0.319591 0.639824 -0.196259 76 0 153
0.319462 0.863977 0.143270 76 0 153
0.319205 -0.140485 -0.258478 76 0 153
-0.227480 -0.331134 0.328318 153 0 76
0.089287 0.009489 -0.287717 76 0 153
-0.328820 0.312136 -0.080606 76 0 153
0.287810 0.553279 0.302317 0 0 255
-0.017993 0.160639 -0.287716 76 0 153
-0.328822 -0.332084 -0.175742 76 0 153
-0.328816 0.541674 0.136349 76 0 153
0.200569 0.882639 0.296025 0 0 255
0.320255 -0.473922 -0.070346 76 0 153
-0.307107 0.396409 0.301472 0 0 255
0.319603 -0.120005 0.216876 76 0 153
0.320280 0.085648 -0.032863 76 0 153
0.147380 -0.880434 0.040779 76 0 153
0.001645 -0.880434 0.106084 76 0 153
0.221499 0.512390 0.298766 0 0 255
0.212959 0.397580 0.299393 0 0 255
-0.328816 0.655828 0.114935 76 0 153
-0.099867 0.278031 0.300606 0 0 255
0.083865 0.463880 0.298804 0 0 255
-0.060843 -0.147942 0.301903 0 0 255
-0.246193 0.658795 -0.287712 76 0 153
-0.328823 0.811985 -0.213720 76 0 153
0.319794 -0.554908 0.170325 76 0 153
-0.207760 0.936374 -0.256250 76 0 153
-0.328815 0.429062 0.172928 76 0 153
0.320338 -0.290247 -0.235036 76 0 153
-0.328820 -0.520525 -0.028306 76 0 153
0.227237 0.514855 -0.287720 76 0 153
0.320287 -0.493893 -0.136489 76 0 153
0.141302 -0.751753 0.302067 76 0 153
0.320339 0.049904 -0.224159 76 0 153
-0.015248 0.657131 0.298182 0 0 255
-0.309475 0.933033 0.118898 76 0 153
0.319300 0.667214 0.077851 76 0 153
-0.215873 -0.163658 -0.287712 76 0 153
-0.328820 -0.751876 -0.047171 76 0 153
-0.078359 0.692285 0.298411 0 0 255
0.272445 0.937193 -0.141132 76 0 153
-0.328820 0.765461 -0.079743 76 0 153
0.320285 0.101393 -0.052223 76 0 153
0.298024 -0.291061 0.300023 76 0 153
-0.328222 0.211723 0.250733 0 0 255
-0.021592 -0.880434 -0.164622 76 0 153
-0.216494 0.937338 -0.214796 76 0 153
0.320107 -0.828613 0.017838 76 0 153
0.320319 0.151729 -0.178853 76 0 153
-0.173005 0.591530 -0.287713 76 0 153
0.319210 0.135239 0.206065 76 0 153
-0.022010 0.045981 0.301086 0 0 255
0.196662 -0.880434 -0.221589 76 0 153
0.320315 -0.503867 -0.193331 76 0 153
0.250793 -0.652107 -0.287720 76 0 153
-0.291817 -0.907162 -0.246102 0 127 127
0.049544 0.904416 0.296933 0 0 255
-0.055254 -0.880434 0.008042 76 0 153
0.072122 0.793347 0.296617 0 0 255
0.131005 0.120663 0.299949 0 0 255
0.037672 -0.561480 -0.287717 76 0 153
-0.326387 0.632837 0.286789 0 0 255
0.298459 0.482729 -0.285019 76 0 153
0.236784 -0.351374 -0.287720 76 0 153
0.320314 -0.675694 -0.190834 76 0 153
-0.328823 0.881810 -0.229047 76 0 153
0.319103 0.469264 0.279956 0 0 255
-0.122939 -0.520030 0.302071 76 0 153
-0.328817 -0.163120 0.104366 76 0 153
-0.328821 0.706938 -0.125236 76 0 153
0.192250 -0.884804 0.261566 76 0 153
-0.306409 0.922674 0.301326 0 0 255
-0.197609 0.910955 0.298474 0 0 255
-0.020388 -0.880434 0.050072 76 0 153
-0.122100 -0.667692 0.301948 76 0 153
-0.328818 -0.058997 0.018063 76 0 153
0.244146 0.526316 0.299627 0 0 255
-0.290435 -0.547856 0.318226 153 0 76
-0.028306 0.448254 0.303521 0 0 255
0.168965 0.690659 -0.287719 76 0 153
-0.283434 0.936207 0.020482 76 0 153
-0.275298 -0.767803 -0.287703 76 0 153
0.107749 -0.299586 -0.287718 76 0 153
-0.328820 -0.059319 -0.082435 76 0 153
-0.328817 -0.367979 0.110173 76 0 153
-0.328819 0.426532 -0.032476 76 0 153
-0.107515 0.136092 0.300961 0 0 255
-0.274535 0.307128 0.325669 255 0 0
0.236577 -0.911674 0.261377 153 0 76
-0.082103 -0.880434 0.134570 76 0 153
-0.328815 -0.329896 0.199270 76 0 153
0.156248 0.937338 0.054416 76 0 153
0.068376 0.512978 0.298963 0 0 255
0.320151 -0.045356 -0.026609 76 0 153
