ply
format ascii 1.0
element vertex 613
property float x
property float y
property float z
property float nx
property float ny
property float nz
property uchar red
property uchar green
property uchar blue
property float opacity
end_header
-0.320924 -0.584940 -0.277728 0.672162 -0.000000 0.740404 255 255 255 1.000000
0.317711 -0.636784 -0.017576 -1.000000 0.000102 -0.000548 255 255 255 1.000000
-0.042546 0.457028 -0.285201 -0.000017 0.000000 -1.000000 177 177 177 1.000000
0.317836 -0.078168 -0.265467 1.000000 -0.000000 0.000316 177 177 177 1.000000
0.297921 0.795498 -0.284828 -0.236338 -0.000000 0.971671 255 255 255 1.000000
0.289521 0.934824 -0.024359 0.000000 -1.000000 -0.000000 255 255 255 1.000000
0.238011 0.450730 0.296672 0.000682 -0.014874 -0.999889 255 255 255 1.000000
0.313775 0.819248 0.296469 -0.203420 0.000000 -0.979092 255 255 255 1.000000
-0.326300 0.396895 0.157458 1.000000 0.000000 -0.000021 255 255 255 1.000000
0.093727 0.934824 0.233162 0.000000 1.000000 0.000000 177 177 177 1.000000
0.317816 0.073647 -0.202414 -1.000000 0.000068 -0.000309 255 255 255 1.000000
-0.321342 0.442540 0.296663 -0.203386 -0.000000 0.979099 0 0 0 1.000000
-0.292073 0.934824 -0.071393 0.000000 -1.000000 -0.000000 255 255 255 1.000000
-0.237820 -0.504750 0.317214 0.265994 0.000000 -0.963975 255 255 255 1.000000
-0.247717 0.934824 -0.192723 0.000000 -1.000000 -0.000000 255 255 255 1.000000
0.317760 -0.196869 -0.053964 -1.000000 0.000124 -0.000407 255 255 255 1.000000
-0.252175 -0.270503 0.333040 0.597877 0.000000 -0.801588 255 255 255 1.000000
0.317741 0.473790 0.109832 -1.000000 0.000134 -0.000149 255 255 255 1.000000
-0.246916 0.585663 0.297300 -0.005648 -0.003901 -0.999976 255 255 255 1.000000
-0.212567 -0.036378 0.298997 0.001469 0.003243 0.999994 177 177 177 1.000000
-0.326299 0.637893 0.214240 1.000000 0.000000 -0.000021 255 255 255 1.000000
-0.235377 0.418061 -0.285198 0.000017 -0.000000 1.000000 255 255 255 1.000000
-0.326304 0.537723 -0.035038 1.000000 0.000000 -0.000021 255 255 255 1.000000
0.002712 -0.423311 -0.285201 -0.000017 -0.000001 -1.000000 177 177 177 1.000000
0.013816 -0.215809 -0.285202 0.000017 -0.000000 1.000000 255 255 255 1.000000
-0.272277 0.815476 -0.285197 0.000017 -0.000000 1.000000 255 255 255 1.000000
0.317600 -0.633310 0.179517 1.000000 -0.000136 0.000570 177 177 177 1.000000
-0.322704 -0.253677 0.291841 -0.767537 0.000001 0.641005 0 0 0 1.000000
-0.213942 -0.458728 -0.285198 -0.000017 -0.000001 -1.000000 177 177 177 1.000000
-0.326299 -0.322882 0.236384 -1.000000 -0.000000 0.000021 177 177 177 1.000000
-0.326308 -0.483148 -0.197450 -1.000000 -0.000000 0.000021 177 177 177 1.000000
-0.326303 -0.633557 0.027514 1.000000 0.000000 -0.000021 255 255 255 1.000000
-0.326302 -0.548847 0.084523 1.000000 0.000000 -0.000021 255 255 255 1.000000
0.172353 -0.033375 -0.285204 -0.000017 0.000000 -1.000000 177 177 177 1.000000
-0.326307 -0.682870 -0.157159 1.000000 0.000000 -0.000021 255 255 255 1.000000
-0.208027 0.220081 0.298382 0.002040 0.002340 0.999995 177 177 177 1.000000
-0.326305 -0.152505 -0.065294 -1.000000 -0.000000 0.000021 177 177 177 1.000000
-0.278216 0.934824 -0.039599 0.000000 1.000000 0.000000 177 177 177 1.000000
0.043812 0.068739 0.298557 -0.001766 -0.003003 -0.999994 255 255 255 1.000000
-0.062604 0.794944 -0.285201 0.000017 -0.000000 1.000000 255 255 255 1.000000
-0.326306 0.523750 -0.129843 1.000000 0.000000 -0.000021 255 255 255 1.000000
-0.326301 -0.522964 0.122013 1.000000 0.000000 -0.000021 255 255 255 1.000000
0.317771 0.278390 -0.023249 1.000000 -0.000067 0.000269 177 177 177 1.000000
0.118558 -0.849883 -0.285203 -0.000017 -0.000000 -1.000000 177 177 177 1.000000
0.026154 0.312990 0.298007 0.002232 0.014574 0.999891 177 177 177 1.000000
-0.326300 0.718576 0.144450 1.000000 0.000000 -0.000021 255 255 255 1.000000
0.317847 -0.484563 0.253778 1.000000 0.000000 -0.000022 177 177 177 1.000000
-0.029247 -0.877919 0.029430 0.000000 1.000000 0.000000 255 255 255 1.000000
-0.315567 -0.878883 0.044121 -1.000000 -0.000000 0.000021 0 0 0 1.000000
0.317811 -0.191388 -0.187301 -1.000000 0.000037 -0.000342 255 255 255 1.000000
-0.144660 0.464955 -0.285199 -0.000017 0.000000 -1.000000 177 177 177 1.000000
-0.079641 -0.194587 0.299552 -0.001438 -0.003447 -0.999993 255 255 255 1.000000
-0.116240 0.574198 0.296274 0.006201 0.003735 0.999974 177 177 177 1.000000
-0.061023 -0.877919 0.030559 0.000000 1.000000 0.000000 255 255 255 1.000000
0.317794 -0.104658 -0.132938 1.000000 -0.000017 0.000321 177 177 177 1.000000
-0.293698 -0.877919 0.120421 0.000000 -1.000000 -0.000000 177 177 177 1.000000
0.147856 -0.634277 0.299552 0.000017 0.000001 1.000000 177 177 177 1.000000
-0.106177 0.886260 0.295758 -0.004896 -0.002688 -0.999984 255 255 255 1.000000
-0.025214 -0.026653 0.298950 -0.001304 -0.003597 -0.999993 255 255 255 1.000000
-0.326299 0.654941 0.232627 -1.000000 -0.000000 0.000021 177 177 177 1.000000
0.317746 0.063174 0.020172 -1.000000 0.000076 -0.000310 255 255 255 1.000000
-0.325598 -0.639545 0.288376 -0.767538 -0.000000 0.641003 0 0 0 1.000000
-0.326305 0.523210 -0.081874 -1.000000 -0.000000 0.000021 177 177 177 1.000000
0.295128 0.934824 -0.138529 0.000000 -1.000000 -0.000000 255 255 255 1.000000
-0.165784 -0.780362 -0.285198 -0.000017 -0.000000 -1.000000 177 177 177 1.000000
-0.326304 0.252199 -0.020360 1.000000 0.000000 -0.000021 255 255 255 1.000000
-0.129167 -0.847717 -0.285199 -0.000017 -0.000000 -1.000000 177 177 177 1.000000
0.317644 -0.270272 0.177099 1.000000 -0.000181 0.000440 177 177 177 1.000000
-0.326299 -0.066763 0.206171 -1.000000 -0.000000 0.000021 177 177 177 1.000000
0.317807 0.092499 -0.171494 1.000000 -0.000068 0.000304 177 177 177 1.000000
-0.132243 0.603898 -0.285199 0.000017 -0.000000 1.000000 255 255 255 1.000000
0.317715 0.084472 0.123661 1.000000 -0.000090 0.000294 177 177 177 1.000000
0.317811 0.545845 -0.165798 1.000000 -0.000098 0.000183 177 177 177 1.000000
0.317745 0.040846 0.022329 -1.000000 0.000036 -0.000327 255 255 255 1.000000
-0.312373 0.584232 0.250830 -0.000018 0.000000 -1.000000 177 177 177 1.000000
0.014367 -0.680188 -0.285202 -0.000017 -0.000001 -1.000000 177 177 177 1.000000
0.310063 -0.542566 -0.279905 0.672134 -0.000001 -0.740429 177 177 177 1.000000
0.051715 0.934824 0.001580 0.000000 -1.000000 -0.000000 255 255 255 1.000000
-0.326299 0.261548 0.199051 1.000000 0.000000 -0.000021 255 255 255 1.000000
-0.277074 -0.767240 -0.285197 -0.000017 -0.000000 -1.000000 177 177 177 1.000000
-0.176390 -0.049700 -0.285198 0.000017 -0.000000 1.000000 255 255 255 1.000000
0.301756 0.550185 0.298966 -0.203420 0.000000 -0.979092 255 255 255 1.000000
0.317737 0.441563 0.128259 -1.000000 0.000134 -0.000153 255 255 255 1.000000
0.316101 -0.264376 0.241073 0.000016 0.000000 1.000000 177 177 177 1.000000
-0.058491 -0.349666 0.299555 -0.000017 -0.000000 -1.000000 255 255 255 1.000000
-0.261848 -0.680606 0.299559 -0.000017 -0.000001 -1.000000 255 255 255 1.000000
0.317733 -0.576304 -0.060884 1.000000 -0.000081 0.000528 177 177 177 1.000000
0.067058 -0.710568 -0.285202 -0.000017 -0.000000 -1.000000 177 177 177 1.000000
-0.172195 0.597360 0.296655 -0.006004 -0.003719 -0.999975 255 255 255 1.000000
-0.063820 0.934824 0.209069 0.000000 -1.000000 -0.000000 255 255 255 1.000000
0.317821 0.643629 -0.206027 -1.000000 0.000101 -0.000167 255 255 255 1.000000
-0.293342 0.525588 0.302480 -0.203387 -0.000000 0.979098 0 0 0 1.000000
0.317684 -0.046696 0.182099 1.000000 -0.000099 0.000370 177 177 177 1.000000
-0.328492 0.822503 0.282975 0.876123 -0.000000 0.482088 255 255 255 1.000000
-0.269936 -0.199586 -0.285197 -0.000017 0.000000 -1.000000 177 177 177 1.000000
0.061330 0.876257 -0.285203 0.000017 -0.000000 1.000000 255 255 255 1.000000
-0.326299 -0.610577 0.230754 1.000000 0.000000 -0.000021 255 255 255 1.000000
0.317733 -0.241836 -0.012130 1.000000 -0.000156 0.000432 177 177 177 1.000000
-0.182604 0.932920 0.296031 0.005368 0.002431 0.999983 177 177 177 1.000000
-0.197980 0.450994 -0.285198 0.000017 -0.000000 1.000000 255 255 255 1.000000
-0.326302 0.630694 0.065820 -1.000000 -0.000000 0.000021 177 177 177 1.000000
0.317828 0.671873 -0.235534 -1.000000 0.000099 -0.000166 255 255 255 1.000000
-0.326307 0.865904 -0.162015 1.000000 0.000000 -0.000021 255 255 255 1.000000
0.317764 0.091994 -0.034732 -1.000000 0.000078 -0.000299 255 255 255 1.000000
0.060173 0.934824 -0.190081 0.000000 -1.000000 -0.000000 255 255 255 1.000000
-0.326304 -0.385055 -0.034032 -1.000000 -0.000000 0.000021 177 177 177 1.000000
0.257149 -0.414641 -0.285206 -0.000017 -0.000000 -1.000000 177 177 177 1.000000
-0.326309 -0.015632 -0.259797 1.000000 0.000000 -0.000021 255 255 255 1.000000
0.130315 0.182374 -0.285204 0.000017 -0.000000 1.000000 255 255 255 1.000000
-0.326306 0.456206 -0.104068 -1.000000 -0.000000 0.000021 177 177 177 1.000000
-0.274026 -0.561686 0.299559 -0.000017 -0.000001 -1.000000 255 255 255 1.000000
-0.205116 -0.300491 -0.285198 -0.000017 0.000000 -1.000000 177 177 177 1.000000
0.317762 0.547734 0.027463 1.000000 -0.000128 0.000147 177 177 177 1.000000
0.317795 0.701237 0.175164 1.000000 -0.000184 0.000062 177 177 177 1.000000
-0.326308 -0.047377 -0.202897 -1.000000 -0.000000 0.000021 177 177 177 1.000000
-0.007496 -0.192475 0.299543 -0.001362 -0.003576 -0.999993 255 255 255 1.000000
-0.326308 -0.450288 -0.210606 1.000000 0.000000 -0.000021 255 255 255 1.000000
0.317729 -0.002325 0.072458 1.000000 -0.000042 0.000329 177 177 177 1.000000
0.011191 -0.877919 0.057327 0.000000 -1.000000 -0.000000 177 177 177 1.000000
0.046864 0.356301 0.301116 -0.005889 -0.003963 -0.999975 255 255 255 1.000000
-0.291015 -0.460078 0.302536 0.265990 0.000000 -0.963976 255 255 255 1.000000
0.317781 0.650464 0.032744 1.000000 -0.000143 0.000116 177 177 177 1.000000
0.207801 0.461542 -0.285205 0.000017 -0.000000 1.000000 255 255 255 1.000000
0.317826 0.389492 -0.226213 -1.000000 0.000075 -0.000231 255 255 255 1.000000
-0.240563 -0.859313 -0.284960 0.000016 0.258821 0.965925 255 255 255 1.000000
-0.211502 -0.215196 0.284880 0.000000 -1.000000 -0.000000 255 255 255 1.000000
0.207263 -0.273098 -0.285205 0.000017 -0.000000 1.000000 255 255 255 1.000000
-0.287997 0.320826 0.320510 0.000000 -1.000000 -0.000000 255 255 255 1.000000
0.211484 0.015495 -0.285205 0.000017 -0.000000 1.000000 255 255 255 1.000000
0.317713 0.110061 0.129920 -1.000000 0.000087 -0.000290 255 255 255 1.000000
0.278316 -0.541963 -0.285206 0.000017 0.000001 1.000000 255 255 255 1.000000
0.212855 0.317370 -0.285205 -0.000017 0.000000 -1.000000 177 177 177 1.000000
0.083168 -0.350094 -0.285203 -0.000017 -0.000000 -1.000000 177 177 177 1.000000
0.199611 -0.869899 0.309297 -0.000017 -0.000003 -1.000000 255 255 255 1.000000
-0.068188 -0.007468 0.298884 -0.001332 -0.003523 -0.999993 255 255 255 1.000000
0.270801 0.934824 0.031992 0.000000 -1.000000 -0.000000 255 255 255 1.000000
0.317695 -0.020726 0.167414 1.000000 -0.000082 0.000357 177 177 177 1.000000
-0.170756 0.934824 0.036844 0.000000 1.000000 0.000000 177 177 177 1.000000
0.317785 0.664140 0.105957 1.000000 -0.000162 0.000092 177 177 177 1.000000
-0.123350 0.349532 -0.285199 0.000017 -0.000000 1.000000 255 255 255 1.000000
0.255132 0.563417 0.296090 0.000163 -0.012572 -0.999921 255 255 255 1.000000
0.317693 -0.089080 0.141770 1.000000 -0.000112 0.000384 177 177 177 1.000000
-0.115204 0.708937 0.296036 0.005775 0.003254 0.999978 177 177 177 1.000000
-0.326301 0.054659 0.121700 -1.000000 -0.000000 0.000021 177 177 177 1.000000
0.317802 0.352582 -0.131647 -1.000000 0.000086 -0.000222 255 255 255 1.000000
-0.228370 -0.186508 0.299526 -0.001586 -0.003182 -0.999994 255 255 255 1.000000
0.036843 0.934824 -0.088372 0.000000 -1.000000 -0.000000 255 255 255 1.000000
0.317819 0.374762 -0.200636 -1.000000 0.000078 -0.000229 255 255 255 1.000000
-0.326307 0.573133 -0.179668 1.000000 0.000000 -0.000021 255 255 255 1.000000
0.317609 -0.422766 0.212758 -1.000000 0.000078 -0.000466 255 255 255 1.000000
0.317724 -0.099115 0.067640 -1.000000 0.000100 -0.000379 255 255 255 1.000000
-0.314548 0.005036 0.250830 0.000018 -0.000000 1.000000 255 255 255 1.000000
-0.326303 -0.281219 0.014867 1.000000 0.000000 -0.000021 255 255 255 1.000000
0.271775 0.934824 0.128650 0.000000 -1.000000 -0.000000 255 255 255 1.000000
-0.078019 -0.215196 0.289251 0.000000 1.000000 0.000000 177 177 177 1.000000
0.317733 -0.181809 0.013336 1.000000 -0.000131 0.000409 177 177 177 1.000000
-0.017446 0.282912 0.298107 -0.001584 -0.002783 -0.999995 255 255 255 1.000000
-0.205762 -0.546847 0.299558 -0.000017 -0.000001 -1.000000 255 255 255 1.000000
0.317762 -0.609600 -0.119770 1.000000 -0.000082 0.000530 177 177 177 1.000000
-0.269093 -0.877919 -0.026705 0.000000 -1.000000 -0.000000 177 177 177 1.000000
0.317786 -0.338059 -0.160922 -1.000000 0.000043 -0.000465 255 255 255 1.000000
-0.326301 -0.131060 0.101591 -1.000000 -0.000000 0.000021 177 177 177 1.000000
0.317028 -0.323272 -0.268450 -0.959088 -0.000000 0.283107 255 255 255 1.000000
0.180702 0.934824 0.094799 0.000000 -1.000000 -0.000000 255 255 255 1.000000
0.244043 0.568875 -0.285206 0.000017 -0.000000 1.000000 255 255 255 1.000000
-0.326306 -0.814785 -0.123320 -1.000000 -0.000000 0.000021 177 177 177 1.000000
0.152788 -0.098376 -0.285204 -0.000017 0.000000 -1.000000 177 177 177 1.000000
-0.025170 0.934824 -0.068615 0.000000 1.000000 0.000000 177 177 177 1.000000
0.317829 -0.243271 -0.246078 1.000000 -0.000064 0.000369 177 177 177 1.000000
-0.055566 0.912920 -0.285201 -0.000017 0.000000 -1.000000 177 177 177 1.000000
-0.326303 -0.665793 0.017335 -1.000000 -0.000000 0.000021 177 177 177 1.000000
-0.326304 -0.178420 -0.000465 -1.000000 -0.000000 0.000021 177 177 177 1.000000
0.317559 -0.744722 0.200113 1.000000 -0.000189 0.000610 177 177 177 1.000000
0.111759 0.250780 -0.285203 -0.000017 0.000000 -1.000000 177 177 177 1.000000
0.036535 -0.877919 -0.028976 0.000000 -1.000000 -0.000000 177 177 177 1.000000
-0.263590 0.641458 -0.285197 -0.000017 0.000000 -1.000000 177 177 177 1.000000
-0.326303 0.663907 0.002802 -1.000000 -0.000000 0.000021 177 177 177 1.000000
-0.326301 -0.578412 0.144091 1.000000 0.000000 -0.000021 255 255 255 1.000000
0.155291 -0.868178 0.299591 -0.000000 1.000000 -0.000003 177 177 177 1.000000
0.317744 0.478941 0.198452 -1.000000 0.000155 -0.000123 255 255 255 1.000000
0.314279 0.001616 -0.276078 -0.672135 -0.000000 0.740429 255 255 255 1.000000
0.294460 -0.908819 -0.226663 0.981658 -0.000000 0.190651 1 1 1 1.000000
0.100236 -0.462805 -0.285203 0.000017 0.000001 1.000000 255 255 255 1.000000
-0.011836 0.785679 -0.285201 -0.000017 0.000000 -1.000000 177 177 177 1.000000
0.202213 0.520847 0.296125 0.000705 -0.010995 -0.999939 255 255 255 1.000000
-0.325897 -0.198995 0.241084 -0.000017 -0.000001 -1.000000 255 255 255 1.000000
0.317788 0.678041 0.064474 1.000000 -0.000155 0.000099 177 177 177 1.000000
-0.320601 -0.653899 -0.278021 0.672162 -0.000000 0.740404 255 255 255 1.000000
-0.015213 0.722814 0.295579 0.004819 0.003347 0.999983 177 177 177 1.000000
-0.326306 0.481277 -0.142247 1.000000 0.000000 -0.000021 255 255 255 1.000000
0.176332 -0.398840 -0.285204 0.000017 0.000000 1.000000 255 255 255 1.000000
-0.326303 -0.747940 0.058451 -1.000000 -0.000000 0.000021 177 177 177 1.000000
-0.324685 -0.740032 -0.271208 -0.959100 0.000000 -0.283069 177 177 177 1.000000
-0.232985 -0.153540 0.299410 -0.001569 -0.003181 -0.999994 255 255 255 1.000000
-0.325553 0.167688 -0.268264 0.959099 -0.000000 0.283071 255 255 255 1.000000
0.174821 -0.549863 -0.285204 0.000017 0.000001 1.000000 255 255 255 1.000000
0.156907 -0.877919 0.049048 0.000000 -1.000000 -0.000000 177 177 177 1.000000
-0.022072 0.384193 0.299263 -0.000025 0.999978 -0.006701 255 255 255 1.000000
-0.189681 -0.296214 0.299558 0.000017 -0.000000 1.000000 177 177 177 1.000000
0.317832 0.869181 -0.248347 1.000000 -0.000115 0.000123 177 177 177 1.000000
0.317838 0.881513 0.195325 -1.000000 0.000216 -0.000002 255 255 255 1.000000
0.307824 -0.041914 -0.281938 0.672136 0.000000 -0.740428 177 177 177 1.000000
0.317847 -0.323091 0.259752 -1.000000 -0.000000 0.000022 255 255 255 1.000000
-0.311101 0.725385 0.298791 0.203386 0.000000 -0.979099 255 255 255 1.000000
0.246805 0.379259 0.297120 0.000865 -0.017368 -0.999849 255 255 255 1.000000
0.317617 -0.472774 0.182042 1.000000 -0.000067 0.000475 177 177 177 1.000000
-0.246354 -0.607184 -0.285197 -0.000017 -0.000001 -1.000000 177 177 177 1.000000
-0.326308 -0.284856 -0.222648 1.000000 0.000000 -0.000021 255 255 255 1.000000
0.208688 0.076945 0.298475 -0.001947 -0.003332 -0.999993 255 255 255 1.000000
0.317657 -0.292154 0.137172 1.000000 -0.000176 0.000439 177 177 177 1.000000
0.255959 -0.283519 0.299550 0.000017 -0.000000 1.000000 177 177 177 1.000000
-0.084712 0.934824 0.168251 0.000000 -1.000000 -0.000000 255 255 255 1.000000
0.317753 -0.693450 -0.100787 1.000000 -0.000105 0.000553 177 177 177 1.000000
0.317629 -0.426754 0.165910 -1.000000 0.000071 -0.000468 255 255 255 1.000000
0.020231 -0.877919 -0.072999 0.000000 1.000000 0.000000 255 255 255 1.000000
0.041284 -0.877919 0.270478 0.000000 1.000000 0.000000 255 255 255 1.000000
0.137041 0.084672 0.298493 -0.001791 -0.003184 -0.999993 255 255 255 1.000000
0.317606 -0.510146 0.198069 1.000000 -0.000063 0.000480 177 177 177 1.000000
-0.028176 0.669367 -0.285201 -0.000017 0.000000 -1.000000 177 177 177 1.000000
0.206655 -0.877919 0.195396 0.000000 -1.000000 -0.000000 177 177 177 1.000000
0.094255 0.451912 0.296091 -0.001715 0.007685 0.999969 177 177 177 1.000000
-0.326302 0.750790 0.052073 -1.000000 -0.000000 0.000021 177 177 177 1.000000
-0.275866 0.766469 -0.285197 0.000017 -0.000000 1.000000 255 255 255 1.000000
-0.326306 -0.128111 -0.117581 1.000000 0.000000 -0.000021 255 255 255 1.000000
-0.049688 -0.575425 -0.285200 0.000017 0.000001 1.000000 255 255 255 1.000000
0.168447 0.301109 0.297976 -0.001302 -0.003213 -0.999994 255 255 255 1.000000
0.314095 0.567822 0.271882 -0.999981 -0.006130 0.000022 255 255 255 1.000000
-0.326300 -0.700290 0.164381 -1.000000 -0.000000 0.000021 177 177 177 1.000000
-0.234115 -0.336681 0.337540 -0.436045 0.000000 -0.899925 255 255 255 1.000000
-0.326309 0.711223 -0.265131 -1.000000 -0.000000 0.000021 177 177 177 1.000000
-0.326305 -0.674082 -0.047829 -1.000000 -0.000000 0.000021 177 177 177 1.000000
-0.326304 -0.766857 -0.023524 -1.000000 -0.000000 0.000021 177 177 177 1.000000
-0.326301 -0.390153 0.124052 1.000000 0.000000 -0.000021 255 255 255 1.000000
-0.014485 0.666997 0.295650 -0.005064 -0.003530 -0.999981 255 255 255 1.000000
0.035756 0.494613 0.295746 -0.000542 0.003930 0.999992 177 177 177 1.000000
-0.224767 -0.820218 -0.285197 -0.000017 -0.000000 -1.000000 177 177 177 1.000000
-0.243686 0.796449 -0.285198 -0.000017 0.000000 -1.000000 177 177 177 1.000000
0.317614 -0.379122 0.210123 1.000000 -0.000084 0.000459 177 177 177 1.000000
-0.254062 0.376319 0.298035 -0.005153 -0.004919 -0.999975 255 255 255 1.000000
-0.014808 0.317923 0.298009 0.002540 0.020317 0.999790 177 177 177 1.000000
-0.058119 0.057909 -0.285200 0.000017 -0.000000 1.000000 255 255 255 1.000000
0.317702 -0.070313 0.130405 1.000000 -0.000099 0.000374 177 177 177 1.000000
-0.326308 -0.768937 -0.218374 1.000000 0.000000 -0.000021 255 255 255 1.000000
0.316110 0.188613 0.276493 0.999992 0.004045 -0.000022 177 177 177 1.000000
-0.326308 0.073918 -0.198771 -1.000000 -0.000000 0.000021 177 177 177 1.000000
0.283044 -0.752137 -0.285206 -0.000017 -0.000000 -1.000000 177 177 177 1.000000
0.072072 -0.877919 0.236469 0.000000 -1.000000 -0.000000 177 177 177 1.000000
-0.326305 -0.653135 -0.061065 -1.000000 -0.000000 0.000021 177 177 177 1.000000
-0.143082 -0.877919 0.019836 0.000000 1.000000 0.000000 255 255 255 1.000000
0.317834 0.157383 -0.259103 -1.000000 0.000054 -0.000298 255 255 255 1.000000
0.051021 -0.877919 -0.201627 0.000000 -1.000000 -0.000000 177 177 177 1.000000
0.317618 -0.622915 0.156819 -1.000000 0.000126 -0.000564 255 255 255 1.000000
0.317788 -0.742426 -0.171940 1.000000 -0.000108 0.000558 177 177 177 1.000000
0.314832 0.451953 0.279336 -0.999982 -0.006057 0.000022 255 255 255 1.000000
-0.119471 -0.877919 -0.064668 0.000000 -1.000000 -0.000000 177 177 177 1.000000
0.025174 0.934824 0.170700 0.000000 -1.000000 -0.000000 255 255 255 1.000000
-0.326303 0.504024 0.021581 1.000000 0.000000 -0.000021 255 255 255 1.000000
-0.326300 0.208006 0.181575 -1.000000 -0.000000 0.000021 177 177 177 1.000000
0.177781 0.934824 -0.140486 0.000000 1.000000 0.000000 177 177 177 1.000000
0.317772 -0.119541 -0.063705 1.000000 -0.000040 0.000337 177 177 177 1.000000
-0.326303 0.359843 0.016991 -1.000000 -0.000000 0.000021 177 177 177 1.000000
-0.213100 -0.675059 -0.285198 0.000017 0.000001 1.000000 255 255 255 1.000000
0.317547 -0.219751 0.250819 -0.000016 0.000000 -1.000000 177 177 177 1.000000
0.160676 0.934819 0.274530 0.000000 1.000000 0.000004 177 177 177 1.000000
-0.228971 -0.455335 0.325362 0.948257 -0.000000 0.317503 255 255 255 1.000000
-0.326303 -0.769605 0.022049 -1.000000 -0.000000 0.000021 177 177 177 1.000000
0.274903 0.939479 0.220221 -1.000000 -0.000000 0.000021 255 255 255 1.000000
-0.326303 0.539035 0.009044 -1.000000 -0.000000 0.000021 177 177 177 1.000000
0.230898 0.886927 -0.285206 -0.000017 0.000000 -1.000000 177 177 177 1.000000
0.168133 -0.309555 -0.285204 -0.000017 0.000000 -1.000000 177 177 177 1.000000
-0.326305 -0.624622 -0.047351 -1.000000 -0.000000 0.000021 177 177 177 1.000000
-0.189933 -0.480089 0.299558 -0.000017 -0.000001 -1.000000 255 255 255 1.000000
-0.326308 -0.622366 -0.212436 -1.000000 -0.000000 0.000021 177 177 177 1.000000
-0.228588 0.321422 0.316233 -0.541953 -0.000000 0.840409 255 255 255 1.000000
-0.326308 0.563885 -0.215170 -1.000000 -0.000000 0.000021 177 177 177 1.000000
-0.208574 0.731339 0.296518 0.006140 0.003136 0.999976 177 177 177 1.000000
-0.326307 0.852771 -0.180963 1.000000 0.000000 -0.000021 255 255 255 1.000000
-0.015629 0.167303 0.298343 0.001487 0.002872 0.999995 177 177 177 1.000000
0.132373 0.761360 -0.285204 -0.000017 0.000000 -1.000000 177 177 177 1.000000
-0.326299 -0.493040 0.230122 1.000000 0.000000 -0.000021 255 255 255 1.000000
0.043831 -0.877919 -0.258465 0.000000 1.000000 0.000000 255 255 255 1.000000
0.317789 0.137521 -0.113072 1.000000 -0.000067 0.000295 177 177 177 1.000000
0.317813 -0.829913 -0.221512 1.000000 -0.000123 0.000575 177 177 177 1.000000
-0.250910 0.105801 0.298698 0.002508 0.002249 0.999994 177 177 177 1.000000
-0.326306 0.444341 -0.133839 1.000000 0.000000 -0.000021 255 255 255 1.000000
0.317725 0.067923 0.093448 -1.000000 0.000089 -0.000298 255 255 255 1.000000
0.317750 0.513106 0.091734 1.000000 -0.000136 0.000142 177 177 177 1.000000
0.188952 -0.838723 -0.285204 -0.000017 -0.000000 -1.000000 177 177 177 1.000000
-0.292491 -0.455203 -0.285196 0.000017 0.000001 1.000000 255 255 255 1.000000
-0.251085 0.008588 0.328535 0.983046 0.000000 -0.183357 255 255 255 1.000000
-0.073921 -0.731150 -0.285200 0.000017 0.000000 1.000000 255 255 255 1.000000
0.017807 0.384959 0.300155 0.003761 0.018524 0.999821 255 255 255 1.000000
0.245211 0.934824 -0.150327 0.000000 -1.000000 -0.000000 255 255 255 1.000000
-0.264805 0.509535 -0.285197 0.000017 -0.000000 1.000000 255 255 255 1.000000
0.286981 0.661681 0.302036 0.203420 -0.000000 0.979092 0 0 0 1.000000
-0.326308 0.516383 -0.236108 1.000000 0.000000 -0.000021 255 255 255 1.000000
-0.326118 0.559759 0.241084 0.000017 -0.000000 1.000000 177 177 177 1.000000
-0.038099 0.424774 -0.285201 -0.000017 0.000000 -1.000000 177 177 177 1.000000
-0.326306 -0.255303 -0.118085 -1.000000 -0.000000 0.000021 177 177 177 1.000000
-0.281292 0.446286 0.298030 0.005187 0.004629 0.999976 177 177 177 1.000000
-0.326302 -0.326897 0.080619 1.000000 0.000000 -0.000021 255 255 255 1.000000
0.317591 -0.803222 0.128695 1.000000 -0.000197 0.000619 177 177 177 1.000000
0.046497 0.899296 -0.285202 -0.000017 0.000000 -1.000000 177 177 177 1.000000
-0.326303 -0.316619 0.041391 -1.000000 -0.000000 0.000021 177 177 177 1.000000
0.274219 -0.877919 0.099090 0.000000 -1.000000 -0.000000 177 177 177 1.000000
-0.326303 0.558034 0.037076 1.000000 0.000000 -0.000021 255 255 255 1.000000
0.242948 0.934824 -0.095278 0.000000 1.000000 0.000000 177 177 177 1.000000
-0.326304 -0.704210 -0.012912 1.000000 0.000000 -0.000021 255 255 255 1.000000
-0.326196 -0.160849 0.270242 0.999996 -0.002910 -0.000022 255 255 255 1.000000
-0.252701 0.920809 0.241083 -0.000017 0.000000 -1.000000 255 255 255 1.000000
-0.037907 -0.465459 -0.285201 -0.000017 -0.000001 -1.000000 177 177 177 1.000000
-0.326307 -0.244353 -0.142780 1.000000 0.000000 -0.000021 255 255 255 1.000000
-0.118271 0.934824 0.062750 0.000000 -1.000000 -0.000000 255 255 255 1.000000
-0.310643 0.233521 -0.283784 -0.236370 0.000000 -0.971663 177 177 177 1.000000
0.317799 0.731448 0.014027 1.000000 -0.000152 0.000096 177 177 177 1.000000
-0.317994 0.196491 -0.280387 0.672164 -0.000000 0.740402 255 255 255 1.000000
-0.172057 0.250068 -0.285199 0.000017 -0.000000 1.000000 255 255 255 1.000000
0.161746 -0.215196 0.288032 0.000000 -1.000000 -0.000000 255 255 255 1.000000
-0.173041 0.669586 -0.285199 0.000017 -0.000000 1.000000 255 255 255 1.000000
-0.094139 0.415667 -0.285200 0.000017 -0.000000 1.000000 255 255 255 1.000000
0.073949 -0.554021 -0.285203 0.000017 0.000001 1.000000 255 255 255 1.000000
0.317665 -0.573263 0.074785 -1.000000 0.000099 -0.000541 255 255 255 1.000000
-0.144509 0.003205 0.298857 -0.001372 -0.003374 -0.999993 255 255 255 1.000000
0.297064 -0.458032 0.298525 0.266024 -0.000000 0.963966 0 0 0 1.000000
-0.060209 -0.653998 -0.285200 0.000017 0.000001 1.000000 255 255 255 1.000000
-0.211489 -0.778180 0.299558 -0.000017 -0.000000 -1.000000 255 255 255 1.000000
0.277521 0.267134 -0.285206 -0.000017 0.000000 -1.000000 177 177 177 1.000000
-0.149652 0.934824 -0.015371 0.000000 -1.000000 -0.000000 255 255 255 1.000000
-0.326300 0.756771 0.157657 1.000000 0.000000 -0.000021 255 255 255 1.000000
0.318953 0.700680 0.281013 0.889655 0.000360 -0.456633 0 0 0 1.000000
0.315195 0.743578 0.294858 -0.865462 0.000000 -0.500975 255 255 255 1.000000
-0.077020 0.265368 -0.285200 0.000017 -0.000000 1.000000 255 255 255 1.000000
-0.184464 -0.618754 0.299558 0.000017 0.000001 1.000000 177 177 177 1.000000
0.317832 0.375038 -0.251234 1.000000 -0.000070 0.000239 177 177 177 1.000000
-0.112441 0.934824 0.111756 0.000000 1.000000 0.000000 177 177 177 1.000000
-0.101759 -0.518935 -0.285200 -0.000017 -0.000001 -1.000000 177 177 177 1.000000
-0.326303 0.148266 0.039517 1.000000 0.000000 -0.000021 255 255 255 1.000000
-0.326304 0.605303 -0.051177 -1.000000 -0.000000 0.000021 177 177 177 1.000000
-0.084715 0.508662 0.296229 -0.006195 -0.003997 -0.999973 255 255 255 1.000000
0.317830 0.325492 -0.243780 1.000000 -0.000067 0.000249 177 177 177 1.000000
-0.310226 0.649446 0.298972 0.203386 0.000000 -0.979099 255 255 255 1.000000
0.155365 0.712066 0.294890 0.000242 0.003497 0.999994 177 177 177 1.000000
-0.176043 0.889107 0.296061 -0.005507 -0.002582 -0.999982 255 255 255 1.000000
-0.326301 0.189266 0.096411 1.000000 0.000000 -0.000021 255 255 255 1.000000
0.317659 -0.392085 0.106916 1.000000 -0.000069 0.000465 177 177 177 1.000000
-0.325775 0.421699 -0.267513 -0.959099 0.000000 -0.283071 177 177 177 1.000000
0.317759 0.549897 0.106237 -1.000000 0.000145 -0.000126 255 255 255 1.000000
-0.086689 -0.877919 0.210296 0.000000 -1.000000 -0.000000 177 177 177 1.000000
0.052808 0.769501 0.295218 0.004002 0.003289 0.999987 177 177 177 1.000000
0.149884 0.934824 -0.180535 0.000000 -1.000000 -0.000000 255 255 255 1.000000
0.301515 -0.778286 0.245617 -1.000000 -0.000000 0.000021 255 255 255 1.000000
-0.123721 0.136481 0.298450 -0.001545 -0.002655 -0.999995 255 255 255 1.000000
0.293123 -0.608052 0.299612 0.266024 -0.000000 0.963966 0 0 0 1.000000
-0.131160 0.934824 0.178605 0.000000 1.000000 0.000000 177 177 177 1.000000
0.317780 0.643027 0.066464 1.000000 -0.000150 0.000109 177 177 177 1.000000
0.317751 -0.241924 -0.052400 -1.000000 0.000147 -0.000427 255 255 255 1.000000
0.296365 -0.879604 -0.205489 -1.000000 -0.000000 0.000021 177 177 177 1.000000
0.089790 -0.110375 0.299253 0.001206 0.003769 0.999992 177 177 177 1.000000
0.317817 0.417671 -0.192649 -1.000000 0.000083 -0.000218 255 255 255 1.000000
0.317847 -0.355713 0.253793 -1.000000 -0.000000 0.000022 255 255 255 1.000000
0.004804 -0.887670 0.291140 0.000000 1.000000 0.000000 255 255 255 1.000000
0.317732 -0.500004 -0.056038 1.000000 -0.000053 0.000486 177 177 177 1.000000
0.005871 0.934824 -0.011612 0.000000 -1.000000 -0.000000 255 255 255 1.000000
0.244354 0.711601 -0.285206 -0.000017 0.000000 -1.000000 177 177 177 1.000000
0.317764 0.570265 0.104984 1.000000 -0.000147 0.000121 177 177 177 1.000000
0.241404 0.300366 0.297763 0.002427 0.003350 0.999991 177 177 177 1.000000
-0.294953 0.724298 -0.285197 0.000017 -0.000000 1.000000 255 255 255 1.000000
-0.326305 -0.826111 -0.063296 1.000000 0.000000 -0.000021 255 255 255 1.000000
0.317795 0.381553 -0.103569 1.000000 -0.000093 0.000210 177 177 177 1.000000
-0.326301 0.011312 0.122157 1.000000 0.000000 -0.000021 255 255 255 1.000000
-0.327103 -0.016800 0.288894 -0.865443 -0.000000 0.501008 0 0 0 1.000000
-0.249671 0.320826 0.315217 0.000000 -1.000000 -0.000000 255 255 255 1.000000
-0.326304 0.471670 -0.030812 -1.000000 -0.000000 0.000021 177 177 177 1.000000
-0.087666 0.934824 0.096308 0.000000 1.000000 0.000000 177 177 177 1.000000
-0.326300 0.877504 0.180994 1.000000 0.000000 -0.000021 255 255 255 1.000000
-0.326301 0.711745 0.124644 -1.000000 -0.000000 0.000021 177 177 177 1.000000
-0.326299 0.061820 0.238940 1.000000 0.000000 -0.000021 255 255 255 1.000000
0.226813 0.634474 0.295567 0.000127 -0.009061 -0.999959 255 255 255 1.000000
-0.326306 -0.443616 -0.111725 -1.000000 -0.000000 0.000021 177 177 177 1.000000
-0.098540 0.221075 0.298271 -0.001631 -0.002642 -0.999995 255 255 255 1.000000
0.234466 -0.507897 -0.285205 -0.000017 -0.000001 -1.000000 177 177 177 1.000000
0.090795 0.252121 0.298115 -0.001353 -0.003068 -0.999994 255 255 255 1.000000
0.317814 0.514420 -0.178970 -1.000000 0.000093 -0.000193 255 255 255 1.000000
0.006660 -0.191239 -0.285202 -0.000017 0.000000 -1.000000 177 177 177 1.000000
0.130552 0.148546 -0.285204 0.000017 -0.000000 1.000000 255 255 255 1.000000
0.258477 0.503919 -0.285206 -0.000017 0.000000 -1.000000 177 177 177 1.000000
0.159974 0.231465 0.298143 -0.001450 -0.003207 -0.999994 255 255 255 1.000000
0.092694 0.715535 0.295116 0.003889 0.003520 0.999986 177 177 177 1.000000
-0.148372 -0.302267 0.299557 0.000017 -0.000000 1.000000 177 177 177 1.000000
-0.068332 -0.557933 -0.285200 -0.000017 -0.000001 -1.000000 177 177 177 1.000000
-0.285748 -0.679518 -0.285196 -0.000017 -0.000001 -1.000000 177 177 177 1.000000
0.301515 -0.115731 0.249629 1.000000 0.000000 -0.000021 177 177 177 1.000000
0.317811 0.773517 0.133198 1.000000 -0.000185 0.000051 177 177 177 1.000000
0.095268 0.321824 0.297879 -0.002002 -0.030846 -0.999522 255 255 255 1.000000
0.149432 0.934824 -0.238495 0.000000 -1.000000 -0.000000 255 255 255 1.000000
0.198266 0.133494 0.298350 0.001780 0.003296 0.999993 177 177 177 1.000000
-0.326305 0.645364 -0.095312 1.000000 0.000000 -0.000021 255 255 255 1.000000
-0.223222 0.316850 -0.285198 -0.000017 0.000000 -1.000000 177 177 177 1.000000
-0.326302 0.842256 0.079364 -1.000000 -0.000000 0.000021 177 177 177 1.000000
-0.114452 0.934824 0.225153 0.000000 1.000000 0.000000 177 177 177 1.000000
-0.178107 -0.070935 -0.285198 0.000017 -0.000000 1.000000 255 255 255 1.000000
-0.075358 0.934824 -0.031796 0.000000 1.000000 0.000000 177 177 177 1.000000
0.243364 0.091192 -0.285206 -0.000017 0.000000 -1.000000 177 177 177 1.000000
0.172275 0.500256 0.296125 0.001000 -0.010003 -0.999949 255 255 255 1.000000
-0.300120 -0.877919 -0.240549 0.000000 1.000000 0.000000 255 255 255 1.000000
-0.326304 -0.482555 -0.000595 1.000000 0.000000 -0.000021 255 255 255 1.000000
-0.326301 0.399993 0.136239 1.000000 0.000000 -0.000021 255 255 255 1.000000
-0.105834 -0.169913 -0.285200 -0.000017 0.000000 -1.000000 177 177 177 1.000000
-0.107563 -0.203505 -0.285200 -0.000017 0.000000 -1.000000 177 177 177 1.000000
0.249572 -0.225199 -0.285206 -0.000017 0.000000 -1.000000 177 177 177 1.000000
-0.326300 -0.838065 0.162159 1.000000 0.000000 -0.000021 255 255 255 1.000000
-0.256070 -0.877919 -0.116509 0.000000 1.000000 0.000000 255 255 255 1.000000
0.249600 -0.545007 0.299550 -0.000017 -0.000001 -1.000000 255 255 255 1.000000
-0.198708 -0.877919 0.096691 0.000000 -1.000000 -0.000000 177 177 177 1.000000
0.037699 0.934824 0.234627 0.000000 -1.000000 -0.000000 255 255 255 1.000000
0.317633 -0.632398 0.129449 1.000000 -0.000124 0.000563 177 177 177 1.000000
-0.125340 0.543710 -0.285199 0.000017 -0.000000 1.000000 255 255 255 1.000000
0.317829 0.849496 0.136524 -1.000000 0.000198 -0.000027 255 255 255 1.000000
0.279138 -0.012902 -0.285206 0.000017 -0.000000 1.000000 255 255 255 1.000000
0.041289 -0.734680 -0.285202 -0.000017 -0.000000 -1.000000 177 177 177 1.000000
0.317752 -0.553216 -0.098763 -1.000000 0.000071 -0.000518 255 255 255 1.000000
0.159608 0.102663 -0.285204 -0.000017 0.000000 -1.000000 177 177 177 1.000000
-0.310195 0.685718 0.243599 -1.000000 -0.000000 0.000021 177 177 177 1.000000
-0.326304 0.193254 -0.046150 1.000000 0.000000 -0.000021 255 255 255 1.000000
0.073263 0.804581 0.295082 -0.003661 -0.003203 -0.999988 255 255 255 1.000000
0.056234 0.096000 0.298489 0.001708 0.003024 0.999994 177 177 177 1.000000
0.317749 -0.144516 -0.007563 1.000000 -0.000107 0.000390 177 177 177 1.000000
-0.328327 -0.690208 0.282950 -0.935562 0.000000 -0.353162 0 0 0 1.000000
0.113121 0.841516 -0.285204 0.000017 -0.000000 1.000000 255 255 255 1.000000
0.317593 -0.578518 0.210653 -1.000000 0.000120 -0.000557 255 255 255 1.000000
0.237280 0.816698 -0.285206 -0.000017 0.000000 -1.000000 177 177 177 1.000000
-0.326303 0.587667 0.020701 -1.000000 -0.000000 0.000021 177 177 177 1.000000
0.126662 -0.285861 -0.285203 0.000017 -0.000000 1.000000 255 255 255 1.000000
0.317820 0.753300 -0.201900 1.000000 -0.000111 0.000141 177 177 177 1.000000
0.175548 0.934824 0.148262 0.000000 -1.000000 -0.000000 255 255 255 1.000000
0.240201 -0.877919 0.018306 0.000000 1.000000 0.000000 255 255 255 1.000000
0.278572 0.597292 -0.285206 0.000017 -0.000000 1.000000 255 255 255 1.000000
-0.234239 0.075492 0.314757 0.203385 0.000000 -0.979099 255 255 255 1.000000
-0.326308 0.143285 -0.226281 1.000000 0.000000 -0.000021 255 255 255 1.000000
-0.165943 0.934824 0.012084 0.000000 1.000000 0.000000 177 177 177 1.000000
0.268229 -0.581112 0.299550 -0.000017 -0.000001 -1.000000 255 255 255 1.000000
-0.326299 0.760282 0.224588 -1.000000 -0.000000 0.000021 177 177 177 1.000000
-0.311847 -0.887670 0.163907 0.000000 1.000000 0.000000 255 255 255 1.000000
-0.046155 -0.887670 0.296725 0.000000 1.000000 0.000000 255 255 255 1.000000
0.317735 -0.755157 -0.073020 -1.000000 0.000127 -0.000573 255 255 255 1.000000
-0.006676 -0.808828 0.299555 -0.000017 -0.000000 -1.000000 255 255 255 1.000000
0.267765 0.230784 -0.285206 -0.000017 0.000000 -1.000000 177 177 177 1.000000
0.317755 -0.640865 -0.104109 1.000000 -0.000092 0.000540 177 177 177 1.000000
-0.326307 0.327242 -0.159875 1.000000 0.000000 -0.000021 255 255 255 1.000000
-0.028776 0.933527 -0.270551 -0.000004 0.965926 -0.258817 177 177 177 1.000000
0.317798 0.720354 0.066724 -1.000000 0.000162 -0.000085 255 255 255 1.000000
-0.196281 0.539465 -0.285198 -0.000017 0.000000 -1.000000 177 177 177 1.000000
0.310143 0.107054 0.297224 -0.203420 0.000000 -0.979092 255 255 255 1.000000
0.317800 -0.196620 -0.152250 -1.000000 0.000079 -0.000376 255 255 255 1.000000
0.317847 -0.834833 0.258655 1.000000 0.000000 -0.000022 177 177 177 1.000000
0.041573 -0.780819 0.299554 -0.000017 -0.000000 -1.000000 255 255 255 1.000000
-0.284296 -0.142137 -0.285197 -0.000017 0.000000 -1.000000 177 177 177 1.000000
-0.255563 0.611314 0.297288 -0.005666 -0.003792 -0.999977 255 255 255 1.000000
0.043259 -0.195704 0.281441 0.000000 1.000000 0.000000 255 255 255 1.000000
0.050227 0.692692 -0.285202 0.000017 -0.000000 1.000000 255 255 255 1.000000
0.133016 0.934824 0.172867 0.000000 1.000000 0.000000 177 177 177 1.000000
-0.216714 -0.877919 -0.224589 0.000000 -1.000000 -0.000000 177 177 177 1.000000
-0.033860 0.328563 -0.285201 -0.000017 0.000000 -1.000000 177 177 177 1.000000
0.317832 0.889905 -0.184276 1.000000 -0.000131 0.000101 177 177 177 1.000000
-0.027777 -0.226670 -0.285201 0.000017 -0.000000 1.000000 255 255 255 1.000000
0.317737 0.190733 0.070213 -1.000000 0.000079 -0.000279 255 255 255 1.000000
0.171038 0.762047 -0.285205 0.000017 -0.000000 1.000000 255 255 255 1.000000
0.315319 0.331442 -0.274239 -0.959088 -0.000000 0.283107 255 255 255 1.000000
0.107579 -0.069507 0.299087 -0.001234 -0.003844 -0.999992 255 255 255 1.000000
0.014239 -0.226120 0.299554 0.000017 -0.000000 1.000000 177 177 177 1.000000
-0.146030 0.200952 -0.285199 0.000017 -0.000000 1.000000 255 255 255 1.000000
-0.326299 -0.732591 0.230686 1.000000 0.000000 -0.000021 255 255 255 1.000000
-0.156599 -0.740345 -0.285199 0.000017 0.000000 1.000000 255 255 255 1.000000
-0.326308 -0.741504 -0.182526 -1.000000 -0.000000 0.000021 177 177 177 1.000000
0.048449 -0.183419 -0.285202 -0.000017 0.000000 -1.000000 177 177 177 1.000000
0.318796 -0.627660 0.280288 0.236365 0.000000 -0.971664 0 0 0 1.000000
-0.326309 0.206530 -0.254604 1.000000 0.000000 -0.000021 255 255 255 1.000000
0.317783 0.487570 -0.055842 -1.000000 0.000110 -0.000176 255 255 255 1.000000
-0.312651 -0.160845 -0.283296 -0.236369 0.000000 -0.971663 177 177 177 1.000000
-0.232490 0.933669 -0.270016 -0.000004 0.965926 -0.258817 177 177 177 1.000000
0.060158 -0.325524 0.299553 -0.000017 -0.000000 -1.000000 255 255 255 1.000000
0.317811 0.320711 -0.167863 1.000000 -0.000078 0.000236 177 177 177 1.000000
-0.072194 0.934824 -0.118164 0.000000 1.000000 0.000000 177 177 177 1.000000
0.265660 -0.682243 -0.285206 -0.000017 -0.000001 -1.000000 177 177 177 1.000000
0.317819 -0.029977 -0.213560 1.000000 -0.000006 0.000318 177 177 177 1.000000
-0.326303 0.065958 0.009084 1.000000 0.000000 -0.000021 255 255 255 1.000000
-0.105192 -0.877919 -0.216360 0.000000 -1.000000 -0.000000 177 177 177 1.000000
-0.107404 -0.447604 0.299556 -0.000017 -0.000001 -1.000000 255 255 255 1.000000
-0.233307 0.511363 0.297430 0.005543 0.004235 0.999976 177 177 177 1.000000
0.317721 0.373274 0.240670 1.000000 -0.000148 0.000144 177 177 177 1.000000
-0.259514 0.415536 0.297952 -0.005215 -0.004740 -0.999975 255 255 255 1.000000
-0.189701 0.556034 0.296931 -0.005835 -0.003947 -0.999975 255 255 255 1.000000
-0.226384 0.098730 -0.285198 -0.000017 0.000000 -1.000000 177 177 177 1.000000
-0.196611 -0.877919 -0.082509 0.000000 -1.000000 -0.000000 177 177 177 1.000000
0.317799 0.129865 -0.148198 1.000000 -0.000065 0.000297 177 177 177 1.000000
0.317770 0.243608 -0.036617 -1.000000 0.000065 -0.000275 255 255 255 1.000000
0.317788 -0.383321 -0.169889 -1.000000 0.000042 -0.000472 255 255 255 1.000000
-0.326301 0.788569 0.101843 1.000000 0.000000 -0.000021 255 255 255 1.000000
-0.173285 -0.791852 0.299558 -0.000017 -0.000000 -1.000000 255 255 255 1.000000
-0.252049 -0.292486 0.333133 0.476915 -0.193918 -0.857291 255 255 255 1.000000
0.317738 -0.112778 0.030953 1.000000 -0.000099 0.000381 177 177 177 1.000000
0.317797 -0.686458 -0.188769 -1.000000 0.000092 -0.000543 255 255 255 1.000000
0.254562 -0.896801 0.253709 -0.313747 -0.000001 -0.949507 255 255 255 1.000000
-0.326306 0.297997 -0.101556 1.000000 0.000000 -0.000021 255 255 255 1.000000
0.016470 0.657278 0.295528 0.004832 0.003604 0.999982 177 177 177 1.000000
-0.099655 -0.194990 0.299554 0.001459 0.003411 0.999993 177 177 177 1.000000
-0.326304 0.754006 -0.029024 1.000000 0.000000 -0.000021 255 255 255 1.000000
0.090530 -0.059022 -0.285203 -0.000017 0.000000 -1.000000 177 177 177 1.000000
-0.326307 0.051449 -0.179780 1.000000 0.000000 -0.000021 255 255 255 1.000000
0.083047 -0.792654 0.299553 -0.000017 -0.000000 -1.000000 255 255 255 1.000000
-0.326309 0.848966 -0.245158 1.000000 0.000000 -0.000021 255 255 255 1.000000
-0.255104 0.194216 -0.285197 0.000017 -0.000000 1.000000 255 255 255 1.000000
0.152223 -0.877919 0.268296 0.000000 -1.000000 -0.000000 177 177 177 1.000000
0.317778 0.072537 -0.078322 -1.000000 0.000077 -0.000304 255 255 255 1.000000
0.301515 0.389677 0.246876 -1.000000 -0.000000 0.000021 255 255 255 1.000000
-0.049266 0.934824 -0.012880 0.000000 -1.000000 -0.000000 255 255 255 1.000000
-0.158291 -0.887670 0.299473 0.000000 1.000000 0.000000 255 255 255 1.000000
-0.172329 0.086976 -0.285199 -0.000017 0.000000 -1.000000 177 177 177 1.000000
-0.071224 0.206741 -0.285200 0.000017 -0.000000 1.000000 255 255 255 1.000000
-0.268304 -0.617353 0.299559 -0.000017 -0.000001 -1.000000 255 255 255 1.000000
-0.326309 -0.562857 -0.242232 -1.000000 -0.000000 0.000021 177 177 177 1.000000
-0.007074 0.934824 -0.265099 0.000000 1.000000 0.000000 177 177 177 1.000000
-0.326300 0.149948 0.144649 1.000000 0.000000 -0.000021 255 255 255 1.000000
-0.326299 0.674363 0.215234 -1.000000 -0.000000 0.000021 177 177 177 1.000000
-0.326301 0.663132 0.118874 -1.000000 -0.000000 0.000021 177 177 177 1.000000
0.178059 0.934824 0.004811 0.000000 1.000000 0.000000 177 177 177 1.000000
0.173199 0.934824 -0.081972 0.000000 -1.000000 -0.000000 255 255 255 1.000000
0.317807 -0.375516 -0.208885 1.000000 -0.000040 0.000472 177 177 177 1.000000
-0.020854 -0.215196 0.280751 0.000000 1.000000 0.000000 177 177 177 1.000000
0.317703 0.163962 0.191441 -1.000000 0.000094 -0.000279 255 255 255 1.000000
0.317748 -0.431398 -0.088880 1.000000 -0.000048 0.000477 177 177 177 1.000000
-0.201847 0.934824 0.099340 0.000000 -1.000000 -0.000000 255 255 255 1.000000
0.317826 0.265642 -0.234290 -1.000000 0.000043 -0.000279 255 255 255 1.000000
0.317339 0.275385 0.291153 0.865462 -0.000000 0.500975 0 0 0 1.000000
0.244637 -0.866270 0.241075 0.000017 -0.000000 1.000000 177 177 177 1.000000
-0.017840 0.835599 0.295439 -0.004335 -0.002976 -0.999986 255 255 255 1.000000
0.317625 -0.301969 0.204930 -1.000000 0.000143 -0.000444 255 255 255 1.000000
0.317782 0.447462 -0.052346 1.000000 -0.000107 0.000185 177 177 177 1.000000
0.104922 -0.524122 0.299553 0.000017 0.000001 1.000000 177 177 177 1.000000
0.109848 0.020680 0.298726 -0.001327 -0.003939 -0.999991 255 255 255 1.000000
-0.200063 -0.007366 0.298895 -0.001437 -0.003272 -0.999994 255 255 255 1.000000
-0.233785 -0.877919 -0.186995 0.000000 1.000000 0.000000 255 255 255 1.000000
0.064957 -0.280010 0.299553 0.000017 -0.000000 1.000000 177 177 177 1.000000
-0.053281 0.007644 0.298820 0.001345 0.003570 0.999993 177 177 177 1.000000
-0.137142 -0.632803 -0.285199 0.000017 0.000001 1.000000 255 255 255 1.000000
-0.325999 -0.834962 0.250830 0.000014 -0.000000 1.000000 255 255 255 1.000000
0.317607 -0.325022 0.238579 -1.000000 0.000095 -0.000450 255 255 255 1.000000
-0.325793 -0.314190 0.288142 -0.767538 -0.000000 0.641003 0 0 0 1.000000
-0.326303 0.197312 0.043717 -1.000000 -0.000000 0.000021 177 177 177 1.000000
-0.238118 -0.240067 0.299558 -0.000017 0.000000 -1.000000 255 255 255 1.000000
0.317670 -0.460997 0.069321 1.000000 -0.000056 0.000477 177 177 177 1.000000
-0.326302 -0.672086 0.088493 1.000000 0.000000 -0.000021 255 255 255 1.000000
0.054910 -0.234097 -0.285202 -0.000017 0.000000 -1.000000 177 177 177 1.000000
0.317757 0.009410 -0.018370 1.000000 -0.000031 0.000326 177 177 177 1.000000
-0.326306 -0.650542 -0.084048 -1.000000 -0.000000 0.000021 177 177 177 1.000000
-0.326308 -0.845966 -0.204570 1.000000 0.000000 -0.000021 255 255 255 1.000000
0.214207 -0.392048 0.299551 0.000017 0.000000 1.000000 177 177 177 1.000000
-0.248996 -0.455429 -0.285197 0.000017 0.000001 1.000000 255 255 255 1.000000
0.066037 0.339534 0.296860 -0.000973 -0.037780 -0.999286 255 255 255 1.000000
0.064776 -0.877919 0.267164 0.000000 -1.000000 -0.000000 177 177 177 1.000000
-0.326306 0.769663 -0.113242 1.000000 0.000000 -0.000021 255 255 255 1.000000
-0.261885 0.464353 0.297814 -0.005313 -0.004509 -0.999976 255 255 255 1.000000
0.133515 0.456402 0.296224 0.001441 -0.009207 -0.999957 255 255 255 1.000000
0.308426 -0.340839 -0.281391 -0.672136 -0.000000 0.740428 255 255 255 1.000000
-0.326300 -0.668048 0.200039 -1.000000 -0.000000 0.000021 177 177 177 1.000000
-0.326308 -0.662896 -0.200360 -1.000000 -0.000000 0.000021 177 177 177 1.000000
-0.059389 -0.877919 0.236567 0.000000 -1.000000 -0.000000 177 177 177 1.000000
-0.248672 -0.329830 0.317234 -0.741436 0.000000 -0.671024 255 255 255 1.000000
-0.310241 -0.681674 0.250830 -0.000016 0.000000 -1.000000 177 177 177 1.000000
-0.285440 0.311763 0.301413 -0.494276 -0.000095 -0.869305 255 255 255 1.000000
0.238612 0.781748 -0.285206 0.000017 -0.000000 1.000000 255 255 255 1.000000
-0.086337 -0.877919 -0.072725 0.000000 -1.000000 -0.000000 177 177 177 1.000000
0.029808 -0.275892 -0.285202 -0.000017 0.000000 -1.000000 177 177 177 1.000000
-0.326309 -0.694887 -0.233083 -1.000000 -0.000000 0.000021 177 177 177 1.000000
0.214364 0.581944 0.295821 0.000403 -0.009898 -0.999951 255 255 255 1.000000
-0.008894 -0.246861 0.299555 0.000017 -0.000000 1.000000 177 177 177 1.000000
-0.220949 -0.766095 -0.285197 -0.000017 -0.000000 -1.000000 177 177 177 1.000000
-0.211512 0.934824 -0.163516 0.000000 -1.000000 -0.000000 255 255 255 1.000000
-0.326300 0.496170 0.146299 -1.000000 -0.000000 0.000021 177 177 177 1.000000
0.108812 0.934824 -0.062628 0.000000 -1.000000 -0.000000 255 255 255 1.000000
0.317781 0.405436 -0.048928 1.000000 -0.000103 0.000194 177 177 177 1.000000
0.317814 0.792842 0.043044 1.000000 -0.000168 0.000069 177 177 177 1.000000
0.311446 0.462730 -0.278650 0.672136 0.000000 -0.740428 177 177 177 1.000000
-0.165585 0.934824 0.115975 0.000000 1.000000 0.000000 177 177 177 1.000000
-0.241102 -0.831548 0.299559 -0.000017 -0.000000 -1.000000 255 255 255 1.000000
0.161451 -0.769462 0.299552 -0.000017 -0.000000 -1.000000 255 255 255 1.000000
0.181540 -0.877919 0.033784 0.000000 -1.000000 -0.000000 177 177 177 1.000000
-0.326299 0.231930 0.198433 -1.000000 -0.000000 0.000021 177 177 177 1.000000
-0.204687 -0.246110 0.299558 0.000017 -0.000000 1.000000 177 177 177 1.000000
0.045398 0.934824 -0.166494 0.000000 -1.000000 -0.000000 255 255 255 1.000000
0.265570 0.629305 0.295751 0.000144 0.011250 0.999937 177 177 177 1.000000
0.317715 0.232003 0.173587 1.000000 -0.000092 0.000269 177 177 177 1.000000
-0.326302 0.493737 0.058538 -1.000000 -0.000000 0.000021 177 177 177 1.000000
-0.298132 0.920316 0.301484 0.203386 0.000000 -0.979099 255 255 255 1.000000
-0.325730 -0.244326 -0.267666 -0.959100 0.000000 -0.283069 177 177 177 1.000000
-0.326298 -0.847462 0.266334 1.000000 0.000000 -0.000022 255 255 255 1.000000
0.291774 -0.854792 0.299985 0.266024 -0.000000 0.963966 0 0 0 1.000000
-0.221658 0.375492 -0.285198 -0.000017 0.000000 -1.000000 177 177 177 1.000000
-0.002327 -0.040492 -0.285201 -0.000017 0.000000 -1.000000 177 177 177 1.000000
0.260183 0.742758 -0.285206 0.000017 -0.000000 1.000000 255 255 255 1.000000
0.317771 0.183140 -0.057760 1.000000 -0.000065 0.000285 177 177 177 1.000000
-0.152035 0.088923 -0.285199 -0.000017 0.000000 -1.000000 177 177 177 1.000000
0.091575 0.764127 -0.285203 -0.000017 0.000000 -1.000000 177 177 177 1.000000
0.317761 0.292235 0.021324 1.000000 -0.000073 0.000266 177 177 177 1.000000
-0.326306 0.595203 -0.139647 -1.000000 -0.000000 0.000021 177 177 177 1.000000
0.282633 -0.172290 -0.285206 -0.000017 0.000000 -1.000000 177 177 177 1.000000
0.317673 -0.512151 0.063785 -1.000000 0.000058 -0.000484 255 255 255 1.000000
-0.326306 0.112901 -0.104239 1.000000 0.000000 -0.000021 255 255 255 1.000000
-0.326308 0.691415 -0.241629 -1.000000 -0.000000 0.000021 177 177 177 1.000000
-0.084500 0.934824 0.236006 0.000000 1.000000 0.000000 177 177 177 1.000000
-0.117521 -0.056344 0.299066 0.001384 0.003409 0.999993 177 177 177 1.000000
0.307105 -0.875426 -0.027023 -1.000000 -0.000000 0.000021 255 255 255 1.000000
0.047532 0.926114 -0.281555 -0.000012 0.707101 -0.707112 177 177 177 1.000000
